4.000 4.000 4.000 4.000 4.000 4.000 1.699 1.235 0.835 0.531 0.412 0.355 0.299 0.245 0.194 0.150 0.126 0.112 0.100 0.092 0.094 0.113 0.145 0.183 0.227 0.278 0.331 0.386 0.445 0.506 4.000 4.000 4.000 4.000 4.000 4.000 4.000 4.000 4.000 4.000 4.000 4.000 4.000 4.000 4.000 4.000 4.000 4.000 4.000 4.000 4.000 4.000 4.000 4.000 4.000 4.000 4.000 4.000 4.000 4.000 4.000 4.000 4.000 4.000 4.000 4.000 4.000 4.000 4.000 4.000 4.000 4.000 4.000 4.000 4.000 4.000 4.000 4.000 4.000 4.000 4.000 4.000 0.522 0.459 0.400 0.343 0.290 0.241 0.195 0.155 0.122 0.095 0.088 0.088 0.088 0.088 0.088 0.088 0.088 0.088 0.088 0.088 0.088 0.088 0.088 0.088 0.088 0.088 0.088 0.088 0.088 0.088 0.088 0.088 0.088 0.088 0.088 0.088 0.088 0.088 0.091 0.106 0.130 0.161 0.198 0.236 0.277 0.320 0.365 0.414 0.463 4.000 4.000 4.000 4.000 4.000 4.000 4.000 4.000 4.000 4.000 4.000 4.000 4.000 4.000 4.000 0.435 0.387 0.340 0.304 0.281 0.269 0.267 0.273 0.290 0.313 0.353 0.402 0.459 0.520 0.580 4.000 4.000 4.000 4.000 4.000 4.000 4.000 4.000 4.000 4.000 4.000 4.000 4.000 4.000 4.000 4.000 4.000 4.000
4.000 4.000 4.000 4.000 4.000 4.000 1.676 1.211 0.810 0.505 0.387 0.329 0.272 0.218 0.167 0.126 0.107 0.097 0.090 0.088 0.094 0.116 0.149 0.189 0.234 0.284 0.339 0.397 0.456 0.517 4.000 4.000 4.000 4.000 4.000 4.000 4.000 4.000 4.000 4.000 4.000 4.000 4.000 4.000 4.000 4.000 4.000 4.000 4.000 4.000 4.000 4.000 4.000 4.000 4.000 4.000 4.000 4.000 4.000 4.000 4.000 4.000 4.000 4.000 4.000 4.000 4.000 4.000 4.000 4.000 4.000 4.000 4.000 4.000 4.000 4.000 4.000 4.000 4.000 4.000 4.000 4.000 0.522 0.459 0.398 0.340 0.287 0.239 0.194 0.152 0.119 0.095 0.088 0.088 0.088 0.088 0.088 0.088 0.088 0.088 0.088 0.088 0.088 0.088 0.088 0.088 0.088 0.088 0.088 0.088 0.088 0.088 0.088 0.088 0.088 0.088 0.088 0.088 0.088 0.088 0.092 0.110 0.137 0.171 0.208 0.248 0.290 0.337 0.384 0.434 4.000 4.000 4.000 4.000 4.000 4.000 4.000 4.000 4.000 4.000 4.000 4.000 4.000 4.000 4.000 4.000 0.453 0.402 0.352 0.306 0.276 0.259 0.251 0.253 0.265 0.286 0.326 0.380 0.440 0.502 0.562 4.000 4.000 4.000 4.000 4.000 4.000 4.000 4.000 4.000 4.000 4.000 4.000 4.000 4.000 4.000 4.000 4.000 4.000
4.000 4.000 4.000 4.000 4.000 4.000 1.656 1.188 0.787 0.481 0.362 0.304 0.247 0.193 0.143 0.106 0.092 0.089 0.088 0.088 0.095 0.119 0.152 0.194 0.241 0.292 0.348 0.407 0.468 0.530 4.000 4.000 4.000 4.000 4.000 4.000 4.000 4.000 4.000 4.000 4.000 4.000 4.000 4.000 4.000 4.000 4.000 4.000 4.000 4.000 4.000 4.000 4.000 4.000 4.000 4.000 4.000 4.000 4.000 4.000 4.000 4.000 4.000 4.000 4.000 4.000 4.000 4.000 4.000 4.000 4.000 4.000 4.000 4.000 4.000 4.000 4.000 4.000 4.000 4.000 4.000 4.000 0.522 0.459 0.398 0.340 0.285 0.234 0.189 0.149 0.116 0.094 0.088 0.088 0.088 0.088 0.088 0.088 0.088 0.088 0.088 0.088 0.088 0.088 0.088 0.088 0.088 0.088 0.088 0.088 0.088 0.088 0.088 0.088 0.088 0.088 0.088 0.088 0.088 0.088 0.094 0.113 0.143 0.177 0.215 0.258 0.302 0.349 0.399 0.450 4.000 4.000 4.000 4.000 4.000 4.000 4.000 4.000 4.000 4.000 4.000 4.000 4.000 4.000 4.000 4.000 0.467 0.413 0.360 0.310 0.270 0.246 0.233 0.230 0.239 0.260 0.303 0.363 0.424 0.486 0.546 0.606 4.000 4.000 4.000 4.000 4.000 4.000 4.000 4.000 4.000 4.000 4.000 4.000 4.000 4.000 4.000 4.000 4.000
4.000 4.000 4.000 4.000 4.000 4.000 1.639 1.170 0.766 0.459 0.339 0.280 0.223 0.170 0.126 0.095 0.088 0.088 0.088 0.088 0.095 0.122 0.155 0.199 0.249 0.302 0.358 0.417 0.477 0.539 4.000 4.000 4.000 4.000 4.000 4.000 4.000 4.000 4.000 4.000 4.000 4.000 4.000 4.000 4.000 4.000 4.000 4.000 4.000 4.000 4.000 4.000 4.000 4.000 4.000 4.000 4.000 4.000 4.000 4.000 4.000 4.000 4.000 4.000 4.000 4.000 4.000 4.000 4.000 4.000 4.000 4.000 4.000 4.000 4.000 4.000 4.000 4.000 4.000 4.000 4.000 4.000 0.522 0.459 0.398 0.339 0.282 0.229 0.183 0.145 0.113 0.094 0.088 0.088 0.088 0.088 0.088 0.088 0.088 0.088 0.088 0.088 0.088 0.088 0.088 0.088 0.088 0.088 0.088 0.088 0.088 0.088 0.088 0.088 0.088 0.088 0.088 0.088 0.088 0.088 0.094 0.116 0.147 0.181 0.221 0.264 0.310 0.358 0.408 0.461 4.000 4.000 4.000 4.000 4.000 4.000 4.000 4.000 4.000 4.000 4.000 4.000 4.000 4.000 4.000 4.000 0.475 0.419 0.366 0.315 0.267 0.233 0.215 0.207 0.213 0.238 0.286 0.347 0.409 0.471 0.533 0.594 0.653 4.000 4.000 4.000 4.000 4.000 4.000 4.000 4.000 4.000 4.000 4.000 4.000 4.000 4.000 4.000 4.000
4.000 4.000 4.000 4.000 4.000 4.000 1.625 1.154 0.750 0.442 0.321 0.262 0.207 0.160 0.122 0.095 0.088 0.088 0.088 0.088 0.095 0.122 0.161 0.205 0.255 0.310 0.367 0.426 0.487 0.549 4.000 4.000 4.000 4.000 4.000 4.000 4.000 4.000 4.000 4.000 4.000 4.000 4.000 4.000 4.000 4.000 4.000 4.000 4.000 4.000 4.000 4.000 4.000 4.000 4.000 4.000 4.000 4.000 4.000 4.000 4.000 4.000 4.000 4.000 4.000 4.000 4.000 4.000 4.000 4.000 4.000 4.000 4.000 4.000 4.000 4.000 4.000 4.000 4.000 4.000 4.000 4.000 0.520 0.457 0.395 0.336 0.279 0.226 0.178 0.140 0.110 0.092 0.088 0.088 0.088 0.088 0.088 0.088 0.088 0.088 0.088 0.088 0.088 0.088 0.088 0.088 0.088 0.088 0.088 0.088 0.088 0.088 0.088 0.088 0.088 0.088 0.088 0.088 0.088 0.088 0.095 0.119 0.148 0.184 0.224 0.267 0.314 0.363 0.414 0.466 4.000 4.000 4.000 4.000 4.000 4.000 4.000 4.000 4.000 4.000 4.000 4.000 4.000 4.000 4.000 4.000 0.476 0.422 0.368 0.315 0.266 0.222 0.197 0.186 0.193 0.221 0.274 0.336 0.399 0.461 0.524 0.584 0.643 0.701 0.755 4.000 4.000 4.000 4.000 4.000 4.000 4.000 4.000 4.000 4.000 4.000 4.000 4.000 4.000
4.000 4.000 4.000 4.000 4.000 4.000 1.617 1.145 0.740 0.431 0.312 0.256 0.206 0.160 0.122 0.095 0.088 0.088 0.088 0.088 0.095 0.124 0.165 0.211 0.262 0.316 0.374 0.435 0.496 0.559 4.000 4.000 4.000 4.000 4.000 4.000 4.000 4.000 4.000 4.000 4.000 4.000 4.000 4.000 4.000 4.000 4.000 4.000 4.000 4.000 4.000 4.000 4.000 4.000 4.000 4.000 4.000 4.000 4.000 4.000 4.000 4.000 4.000 4.000 4.000 4.000 4.000 4.000 4.000 4.000 4.000 4.000 4.000 4.000 4.000 4.000 4.000 4.000 4.000 4.000 4.000 0.580 0.517 0.454 0.392 0.333 0.276 0.223 0.175 0.134 0.107 0.091 0.088 0.088 0.088 0.088 0.088 0.088 0.088 0.088 0.088 0.088 0.088 0.088 0.088 0.088 0.088 0.088 0.088 0.088 0.088 0.088 0.088 0.088 0.088 0.088 0.088 0.088 0.088 0.088 0.095 0.119 0.148 0.184 0.224 0.267 0.314 0.363 0.414 0.466 4.000 4.000 4.000 4.000 4.000 4.000 4.000 4.000 4.000 4.000 4.000 4.000 4.000 4.000 4.000 0.529 0.472 0.417 0.364 0.312 0.262 0.216 0.181 0.169 0.177 0.209 0.264 0.326 0.389 0.452 0.514 0.576 0.636 0.694 0.750 0.803 4.000 4.000 4.000 4.000 4.000 4.000 4.000 4.000 4.000 4.000 4.000 4.000 4.000
4.000 4.000 4.000 4.000 4.000 4.000 1.614 1.142 0.737 0.430 0.312 0.256 0.206 0.160 0.122 0.095 0.088 0.088 0.088 0.088 0.095 0.127 0.169 0.217 0.268 0.323 0.380 0.440 0.501 0.564 4.000 4.000 4.000 4.000 4.000 4.000 4.000 4.000 4.000 4.000 4.000 4.000 4.000 4.000 4.000 4.000 4.000 4.000 4.000 4.000 4.000 4.000 4.000 4.000 4.000 4.000 4.000 4.000 4.000 4.000 4.000 4.000 4.000 4.000 4.000 4.000 4.000 4.000 4.000 4.000 4.000 4.000 4.000 4.000 4.000 4.000 4.000 4.000 4.000 4.000 4.000 0.577 0.513 0.451 0.389 0.330 0.273 0.220 0.172 0.130 0.102 0.089 0.088 0.088 0.088 0.088 0.088 0.088 0.088 0.088 0.088 0.088 0.088 0.088 0.088 0.088 0.088 0.088 0.088 0.088 0.088 0.088 0.088 0.088 0.088 0.088 0.088 0.088 0.088 0.088 0.094 0.116 0.147 0.181 0.221 0.264 0.310 0.358 0.408 0.461 4.000 4.000 4.000 4.000 4.000 4.000 4.000 4.000 4.000 4.000 4.000 4.000 4.000 4.000 4.000 0.516 0.461 0.407 0.354 0.304 0.256 0.211 0.171 0.158 0.168 0.201 0.256 0.318 0.381 0.445 0.508 0.570 0.631 0.691 0.747 0.800 4.000 4.000 4.000 4.000 4.000 4.000 4.000 4.000 4.000 4.000 4.000 4.000 4.000
4.000 4.000 4.000 4.000 4.000 4.000 1.614 1.142 0.737 0.430 0.312 0.256 0.206 0.160 0.122 0.095 0.088 0.088 0.088 0.088 0.097 0.130 0.172 0.220 0.272 0.327 0.384 0.443 0.505 0.567 4.000 4.000 4.000 4.000 4.000 4.000 4.000 4.000 4.000 4.000 4.000 4.000 4.000 4.000 4.000 4.000 4.000 4.000 4.000 4.000 4.000 4.000 4.000 4.000 4.000 4.000 4.000 4.000 4.000 4.000 4.000 4.000 4.000 4.000 4.000 4.000 4.000 4.000 4.000 4.000 4.000 4.000 4.000 4.000 4.000 4.000 4.000 4.000 4.000 4.000 4.000 0.574 0.510 0.447 0.386 0.326 0.270 0.217 0.169 0.127 0.098 0.088 0.088 0.088 0.088 0.088 0.088 0.088 0.088 0.088 0.088 0.088 0.088 0.088 0.088 0.088 0.088 0.088 0.088 0.088 0.088 0.088 0.088 0.088 0.088 0.088 0.088 0.088 0.088 0.088 0.094 0.113 0.143 0.177 0.215 0.258 0.302 0.349 0.399 0.450 4.000 4.000 4.000 4.000 4.000 4.000 4.000 4.000 4.000 4.000 4.000 4.000 4.000 4.000 4.000 0.497 0.444 0.392 0.341 0.293 0.248 0.204 0.169 0.154 0.163 0.197 0.252 0.315 0.378 0.442 0.505 0.567 0.628 0.687 0.744 4.000 4.000 4.000 4.000 4.000 4.000 4.000 4.000 4.000 4.000 4.000 4.000 4.000 4.000
4.000 4.000 4.000 4.000 4.000 4.000 1.614 1.142 0.737 0.430 0.312 0.256 0.206 0.160 0.122 0.095 0.088 0.088 0.088 0.088 0.100 0.133 0.175 0.221 0.272 0.327 0.386 0.446 0.507 0.569 4.000 4.000 4.000 4.000 4.000 4.000 4.000 4.000 4.000 4.000 4.000 4.000 4.000 4.000 4.000 4.000 4.000 4.000 4.000 4.000 4.000 4.000 4.000 4.000 4.000 4.000 4.000 4.000 4.000 4.000 4.000 4.000 4.000 4.000 4.000 4.000 4.000 4.000 4.000 4.000 4.000 4.000 4.000 4.000 4.000 4.000 4.000 4.000 4.000 4.000 0.634 0.570 0.507 0.444 0.383 0.323 0.266 0.213 0.165 0.124 0.094 0.088 0.088 0.088 0.088 0.088 0.088 0.088 0.088 0.088 0.088 0.088 0.088 0.088 0.088 0.088 0.088 0.088 0.088 0.088 0.088 0.088 0.088 0.088 0.088 0.088 0.088 0.088 0.088 0.088 0.092 0.110 0.137 0.171 0.208 0.248 0.290 0.337 0.384 0.432 4.000 4.000 4.000 4.000 4.000 4.000 4.000 4.000 4.000 4.000 4.000 4.000 4.000 4.000 4.000 0.473 0.424 0.375 0.327 0.279 0.235 0.194 0.168 0.157 0.164 0.199 0.253 0.316 0.380 0.443 0.506 0.567 0.628 4.000 4.000 4.000 4.000 4.000 4.000 4.000 4.000 4.000 4.000 4.000 4.000 4.000 4.000 4.000 4.000
4.000 4.000 4.000 4.000 4.000 4.000 1.614 1.142 0.737 0.430 0.312 0.256 0.206 0.160 0.122 0.095 0.088 0.088 0.088 0.089 0.104 0.136 0.176 0.221 0.272 0.327 0.384 0.443 0.504 0.566 4.000 4.000 4.000 4.000 4.000 4.000 4.000 4.000 4.000 4.000 4.000 4.000 4.000 4.000 4.000 4.000 4.000 4.000 4.000 4.000 4.000 4.000 4.000 4.000 4.000 4.000 4.000 4.000 4.000 4.000 4.000 4.000 4.000 4.000 4.000 4.000 4.000 4.000 4.000 4.000 4.000 4.000 4.000 4.000 4.000 4.000 4.000 4.000 4.000 4.000 0.631 0.567 0.504 0.441 0.379 0.320 0.263 0.210 0.162 0.120 0.092 0.088 0.088 0.088 0.088 0.088 0.088 0.088 0.088 0.088 0.088 0.088 0.088 0.088 0.088 0.088 0.088 0.088 0.088 0.088 0.088 0.088 0.088 0.088 0.088 0.088 0.088 0.088 0.088 0.088 0.091 0.106 0.130 0.161 0.198 0.236 0.277 0.320 0.365 0.410 0.456 4.000 4.000 4.000 4.000 4.000 4.000 4.000 4.000 4.000 4.000 4.000 4.000 4.000 4.000 0.445 0.399 0.353 0.308 0.263 0.221 0.186 0.166 0.163 0.175 0.212 0.262 0.322 0.384 0.448 0.511 0.573 4.000 4.000 4.000 4.000 4.000 4.000 4.000 4.000 4.000 4.000 4.000 4.000 4.000 4.000 4.000 4.000 4.000
4.000 4.000 4.000 4.000 4.000 4.000 1.614 1.142 0.737 0.430 0.312 0.256 0.206 0.160 0.122 0.095 0.088 0.088 0.088 0.091 0.107 0.138 0.176 0.221 0.271 0.324 0.380 0.437 0.496 0.557 4.000 4.000 4.000 4.000 4.000 4.000 4.000 4.000 4.000 4.000 4.000 4.000 4.000 4.000 4.000 4.000 4.000 4.000 4.000 4.000 4.000 4.000 4.000 4.000 4.000 4.000 4.000 4.000 4.000 4.000 4.000 4.000 4.000 4.000 4.000 4.000 4.000 4.000 4.000 4.000 4.000 4.000 4.000 4.000 4.000 4.000 4.000 4.000 4.000 4.000 4.000 0.563 0.500 0.438 0.376 0.317 0.260 0.207 0.159 0.117 0.092 0.088 0.088 0.088 0.088 0.088 0.088 0.088 0.088 0.088 0.088 0.088 0.088 0.088 0.088 0.088 0.088 0.088 0.088 0.088 0.088 0.088 0.088 0.088 0.088 0.088 0.088 0.088 0.088 0.088 0.089 0.101 0.123 0.152 0.185 0.221 0.261 0.302 0.344 0.386 0.429 4.000 4.000 4.000 4.000 4.000 4.000 4.000 4.000 4.000 4.000 4.000 4.000 4.000 0.457 0.414 0.371 0.329 0.286 0.245 0.205 0.177 0.168 0.173 0.193 0.230 0.277 0.333 0.394 0.457 0.519 0.581 4.000 4.000 4.000 4.000 4.000 4.000 4.000 4.000 4.000 4.000 4.000 4.000 4.000 4.000 4.000 4.000 4.000
4.000 4.000 4.000 4.000 4.000 4.000 1.614 1.142 0.737 0.430 0.312 0.256 0.206 0.160 0.122 0.095 0.088 0.088 0.088 0.092 0.109 0.138 0.176 0.219 0.268 0.319 0.372 0.428 0.487 4.000 4.000 4.000 4.000 4.000 4.000 4.000 4.000 4.000 4.000 4.000 4.000 4.000 4.000 4.000 4.000 4.000 4.000 4.000 4.000 4.000 4.000 4.000 4.000 4.000 4.000 4.000 4.000 4.000 4.000 4.000 4.000 4.000 4.000 4.000 4.000 4.000 4.000 4.000 4.000 4.000 4.000 4.000 4.000 4.000 4.000 4.000 4.000 4.000 4.000 4.000 4.000 0.556 0.493 0.431 0.371 0.313 0.257 0.204 0.156 0.116 0.094 0.088 0.088 0.088 0.088 0.088 0.088 0.088 0.088 0.088 0.088 0.088 0.088 0.088 0.088 0.088 0.088 0.088 0.088 0.088 0.088 0.088 0.088 0.088 0.088 0.088 0.088 0.088 0.088 0.088 0.088 0.096 0.115 0.141 0.171 0.204 0.242 0.280 0.319 0.359 0.398 0.437 4.000 4.000 4.000 4.000 4.000 4.000 4.000 4.000 4.000 4.000 4.000 4.000 0.421 0.383 0.343 0.303 0.264 0.226 0.190 0.172 0.172 0.185 0.214 0.255 0.300 0.349 0.407 0.470 0.532 4.000 4.000 4.000 4.000 4.000 4.000 4.000 4.000 4.000 4.000 4.000 4.000 4.000 4.000 4.000 4.000 4.000 4.000
4.000 4.000 4.000 4.000 4.000 4.000 1.614 1.142 0.737 0.430 0.312 0.256 0.206 0.160 0.122 0.095 0.088 0.088 0.088 0.094 0.110 0.138 0.174 0.216 0.262 0.311 0.362 0.418 0.477 4.000 4.000 4.000 4.000 4.000 4.000 4.000 4.000 4.000 4.000 4.000 4.000 4.000 4.000 4.000 4.000 4.000 4.000 4.000 4.000 4.000 4.000 4.000 4.000 4.000 4.000 4.000 4.000 4.000 4.000 4.000 4.000 4.000 4.000 4.000 4.000 4.000 4.000 4.000 4.000 4.000 4.000 4.000 4.000 4.000 4.000 4.000 4.000 4.000 4.000 4.000 4.000 0.549 0.487 0.425 0.365 0.307 0.252 0.201 0.154 0.117 0.094 0.088 0.088 0.088 0.088 0.088 0.088 0.088 0.088 0.088 0.088 0.088 0.088 0.088 0.088 0.088 0.088 0.088 0.088 0.088 0.088 0.088 0.088 0.088 0.088 0.088 0.088 0.088 0.088 0.088 0.088 0.092 0.107 0.130 0.157 0.188 0.222 0.257 0.293 0.329 0.366 0.401 0.433 4.000 4.000 4.000 4.000 4.000 4.000 4.000 4.000 4.000 4.000 0.418 0.385 0.350 0.313 0.277 0.241 0.207 0.179 0.174 0.183 0.205 0.240 0.284 0.329 0.377 0.427 0.485 0.546 4.000 4.000 4.000 4.000 4.000 4.000 4.000 4.000 4.000 4.000 4.000 4.000 4.000 4.000 4.000 4.000 4.000 4.000
4.000 4.000 4.000 4.000 4.000 4.000 1.614 1.142 0.737 0.430 0.312 0.256 0.206 0.160 0.122 0.095 0.088 0.088 0.088 0.094 0.111 0.137 0.171 0.211 0.254 0.301 0.353 0.409 0.467 4.000 4.000 4.000 4.000 4.000 4.000 4.000 4.000 4.000 4.000 4.000 4.000 4.000 4.000 4.000 4.000 4.000 4.000 4.000 4.000 4.000 4.000 4.000 4.000 4.000 4.000 4.000 4.000 4.000 4.000 4.000 4.000 4.000 4.000 4.000 4.000 4.000 4.000 4.000 4.000 4.000 4.000 4.000 4.000 4.000 4.000 4.000 4.000 4.000 4.000 4.000 4.000 0.540 0.478 0.417 0.358 0.300 0.246 0.197 0.154 0.119 0.095 0.088 0.088 0.088 0.088 0.088 0.088 0.088 0.088 0.088 0.088 0.088 0.088 0.088 0.088 0.088 0.088 0.088 0.088 0.088 0.088 0.088 0.088 0.088 0.088 0.088 0.088 0.088 0.088 0.088 0.088 0.089 0.100 0.119 0.143 0.170 0.201 0.233 0.266 0.299 0.332 0.364 0.394 0.421 0.444 4.000 4.000 4.000 4.000 4.000 4.000 0.429 0.405 0.378 0.348 0.317 0.284 0.254 0.225 0.199 0.186 0.192 0.208 0.235 0.276 0.323 0.368 0.414 0.462 0.512 4.000 4.000 4.000 4.000 4.000 4.000 4.000 4.000 4.000 4.000 4.000 4.000 4.000 4.000 4.000 4.000 4.000 4.000 4.000
4.000 4.000 4.000 4.000 4.000 4.000 1.614 1.142 0.737 0.430 0.312 0.256 0.206 0.160 0.122 0.095 0.088 0.088 0.088 0.094 0.110 0.135 0.168 0.205 0.245 0.292 0.343 0.398 0.454 4.000 4.000 4.000 4.000 4.000 4.000 4.000 4.000 4.000 4.000 4.000 4.000 4.000 4.000 4.000 4.000 4.000 4.000 4.000 4.000 4.000 4.000 4.000 4.000 4.000 4.000 4.000 4.000 4.000 4.000 4.000 4.000 4.000 4.000 4.000 4.000 4.000 4.000 4.000 4.000 4.000 4.000 4.000 4.000 4.000 4.000 4.000 4.000 4.000 4.000 4.000 4.000 0.534 0.471 0.409 0.349 0.294 0.242 0.194 0.154 0.122 0.095 0.088 0.088 0.088 0.088 0.088 0.088 0.088 0.088 0.088 0.088 0.088 0.088 0.088 0.088 0.088 0.088 0.088 0.088 0.088 0.088 0.088 0.088 0.088 0.088 0.088 0.088 0.088 0.088 0.088 0.088 0.088 0.092 0.108 0.129 0.153 0.180 0.209 0.239 0.269 0.299 0.328 0.354 0.379 0.400 0.414 0.425 0.428 0.425 0.417 0.403 0.385 0.363 0.338 0.312 0.288 0.264 0.242 0.221 0.205 0.205 0.217 0.241 0.273 0.317 0.363 0.411 0.457 0.504 0.551 4.000 4.000 4.000 4.000 4.000 4.000 4.000 4.000 4.000 4.000 4.000 4.000 4.000 4.000 4.000 4.000 4.000 4.000 4.000
4.000 4.000 4.000 4.000 4.000 4.000 1.614 1.142 0.737 0.430 0.312 0.256 0.206 0.160 0.122 0.095 0.088 0.088 0.088 0.092 0.109 0.132 0.162 0.196 0.235 0.282 0.332 0.385 0.441 4.000 4.000 4.000 4.000 4.000 4.000 4.000 4.000 4.000 4.000 4.000 4.000 4.000 4.000 4.000 4.000 4.000 4.000 4.000 4.000 4.000 4.000 4.000 4.000 4.000 4.000 4.000 4.000 4.000 4.000 4.000 4.000 4.000 4.000 4.000 4.000 4.000 4.000 4.000 4.000 4.000 4.000 4.000 4.000 4.000 4.000 4.000 4.000 4.000 4.000 4.000 4.000 0.529 0.466 0.405 0.345 0.289 0.237 0.192 0.154 0.122 0.095 0.088 0.088 0.088 0.088 0.088 0.088 0.088 0.088 0.088 0.088 0.088 0.088 0.088 0.088 0.088 0.088 0.088 0.088 0.088 0.088 0.088 0.088 0.088 0.088 0.088 0.088 0.088 0.088 0.088 0.088 0.088 0.089 0.098 0.115 0.135 0.160 0.185 0.212 0.239 0.266 0.292 0.315 0.337 0.355 0.369 0.377 0.381 0.379 0.372 0.359 0.344 0.324 0.303 0.287 0.271 0.255 0.240 0.226 0.221 0.228 0.248 0.276 0.314 0.360 0.406 0.453 0.500 0.547 0.593 4.000 4.000 4.000 4.000 4.000 4.000 4.000 4.000 4.000 4.000 4.000 4.000 4.000 4.000 4.000 4.000 4.000 4.000 4.000
4.000 4.000 4.000 4.000 4.000 4.000 1.614 1.142 0.737 0.430 0.312 0.256 0.206 0.160 0.122 0.095 0.088 0.088 0.088 0.091 0.106 0.129 0.156 0.187 0.226 0.271 0.319 0.372 0.429 0.488 4.000 4.000 4.000 4.000 4.000 4.000 4.000 4.000 4.000 4.000 4.000 4.000 4.000 4.000 4.000 4.000 4.000 4.000 4.000 4.000 4.000 4.000 4.000 4.000 4.000 4.000 4.000 4.000 4.000 4.000 4.000 4.000 4.000 4.000 4.000 4.000 4.000 4.000 4.000 4.000 4.000 4.000 4.000 4.000 4.000 4.000 4.000 4.000 4.000 4.000 4.000 0.526 0.463 0.402 0.342 0.286 0.234 0.190 0.152 0.119 0.095 0.088 0.088 0.088 0.088 0.088 0.088 0.088 0.088 0.088 0.088 0.088 0.088 0.088 0.088 0.088 0.088 0.088 0.088 0.088 0.088 0.088 0.088 0.088 0.088 0.088 0.088 0.088 0.088 0.088 0.088 0.088 0.088 0.090 0.102 0.119 0.140 0.162 0.185 0.209 0.233 0.257 0.277 0.296 0.312 0.324 0.331 0.334 0.334 0.328 0.318 0.303 0.290 0.280 0.272 0.262 0.253 0.244 0.238 0.243 0.256 0.282 0.315 0.358 0.403 0.450 0.496 0.542 0.590 0.636 4.000 4.000 4.000 4.000 4.000 4.000 4.000 4.000 4.000 4.000 4.000 4.000 4.000 4.000 4.000 4.000 4.000 4.000 4.000
4.000 4.000 4.000 4.000 4.000 4.000 1.614 1.142 0.737 0.430 0.312 0.256 0.206 0.160 0.122 0.095 0.088 0.088 0.088 0.089 0.101 0.123 0.149 0.177 0.216 0.258 0.306 0.359 0.416 0.475 4.000 4.000 4.000 4.000 4.000 4.000 4.000 4.000 4.000 4.000 4.000 4.000 4.000 4.000 4.000 4.000 4.000 4.000 4.000 4.000 4.000 4.000 4.000 4.000 4.000 4.000 4.000 4.000 4.000 4.000 4.000 4.000 4.000 4.000 4.000 4.000 4.000 4.000 4.000 4.000 4.000 4.000 4.000 4.000 4.000 4.000 4.000 4.000 4.000 4.000 4.000 0.523 0.460 0.399 0.340 0.285 0.234 0.188 0.149 0.116 0.094 0.088 0.088 0.088 0.088 0.088 0.088 0.088 0.088 0.088 0.088 0.088 0.088 0.088 0.088 0.088 0.088 0.088 0.088 0.088 0.088 0.088 0.088 0.088 0.088 0.088 0.088 0.088 0.088 0.088 0.088 0.088 0.088 0.088 0.092 0.104 0.121 0.140 0.160 0.180 0.201 0.222 0.240 0.256 0.270 0.280 0.288 0.291 0.289 0.285 0.276 0.270 0.265 0.263 0.261 0.258 0.255 0.252 0.254 0.267 0.286 0.318 0.358 0.403 0.448 0.493 0.539 0.585 0.630 4.000 4.000 4.000 4.000 4.000 4.000 4.000 4.000 4.000 4.000 4.000 4.000 4.000 4.000 4.000 4.000 4.000 4.000 4.000 4.000
4.000 4.000 4.000 4.000 4.000 4.000 1.614 1.142 0.737 0.430 0.312 0.256 0.206 0.160 0.122 0.095 0.088 0.088 0.088 0.088 0.096 0.115 0.140 0.168 0.204 0.245 0.294 0.347 0.403 0.462 0.523 4.000 4.000 4.000 4.000 4.000 4.000 4.000 4.000 4.000 4.000 4.000 4.000 4.000 4.000 4.000 4.000 4.000 4.000 4.000 4.000 4.000 4.000 4.000 4.000 4.000 4.000 4.000 4.000 4.000 4.000 4.000 4.000 4.000 4.000 4.000 4.000 4.000 4.000 4.000 4.000 4.000 4.000 4.000 4.000 4.000 4.000 4.000 4.000 4.000 4.000 0.521 0.459 0.398 0.340 0.285 0.233 0.184 0.144 0.113 0.094 0.088 0.088 0.088 0.088 0.088 0.088 0.088 0.088 0.088 0.088 0.088 0.088 0.088 0.088 0.088 0.088 0.088 0.088 0.088 0.088 0.088 0.088 0.088 0.088 0.088 0.088 0.088 0.088 0.088 0.088 0.088 0.088 0.088 0.088 0.093 0.104 0.119 0.137 0.155 0.174 0.193 0.210 0.223 0.235 0.244 0.249 0.250 0.248 0.243 0.241 0.242 0.246 0.252 0.255 0.258 0.261 0.264 0.276 0.295 0.321 0.359 0.403 0.448 0.493 0.538 0.582 0.627 4.000 4.000 4.000 4.000 4.000 4.000 4.000 4.000 4.000 4.000 4.000 4.000 4.000 4.000 4.000 4.000 4.000 4.000 4.000 4.000 4.000
4.000 4.000 4.000 4.000 4.000 4.000 1.614 1.142 0.737 0.430 0.312 0.256 0.206 0.160 0.122 0.095 0.088 0.088 0.088 0.088 0.092 0.107 0.128 0.156 0.191 0.233 0.281 0.334 0.391 0.449 0.509 0.569 0.631 4.000 4.000 4.000 4.000 4.000 4.000 4.000 4.000 4.000 4.000 4.000 4.000 4.000 4.000 4.000 4.000 4.000 4.000 4.000 4.000 4.000 4.000 4.000 4.000 4.000 4.000 4.000 4.000 4.000 4.000 4.000 4.000 4.000 4.000 4.000 4.000 4.000 4.000 4.000 4.000 4.000 4.000 4.000 4.000 4.000 4.000 4.000 4.000 0.517 0.456 0.396 0.339 0.282 0.229 0.181 0.140 0.110 0.092 0.088 0.088 0.088 0.088 0.088 0.088 0.088 0.088 0.088 0.088 0.088 0.088 0.088 0.088 0.088 0.088 0.088 0.088 0.088 0.088 0.088 0.088 0.088 0.088 0.088 0.088 0.088 0.088 0.088 0.088 0.088 0.088 0.088 0.088 0.089 0.096 0.110 0.128 0.146 0.165 0.182 0.197 0.209 0.218 0.223 0.224 0.223 0.218 0.212 0.214 0.221 0.232 0.242 0.251 0.261 0.270 0.280 0.300 0.328 0.362 0.403 0.448 0.492 0.537 0.582 0.626 0.669 4.000 4.000 4.000 4.000 4.000 4.000 4.000 4.000 4.000 4.000 4.000 4.000 4.000 4.000 4.000 4.000 4.000 4.000 4.000 4.000 4.000
4.000 4.000 4.000 4.000 4.000 4.000 1.614 1.142 0.737 0.430 0.312 0.256 0.206 0.160 0.122 0.095 0.088 0.088 0.088 0.088 0.089 0.100 0.118 0.143 0.176 0.219 0.268 0.321 0.376 0.433 0.493 0.554 0.615 4.000 4.000 4.000 4.000 4.000 4.000 4.000 4.000 4.000 4.000 4.000 4.000 4.000 4.000 4.000 4.000 4.000 4.000 4.000 4.000 4.000 4.000 4.000 4.000 4.000 4.000 4.000 4.000 4.000 4.000 4.000 4.000 4.000 4.000 4.000 4.000 4.000 4.000 4.000 4.000 4.000 4.000 4.000 4.000 4.000 4.000 4.000 0.575 0.512 0.450 0.390 0.332 0.278 0.226 0.178 0.136 0.106 0.091 0.088 0.088 0.088 0.088 0.088 0.088 0.088 0.088 0.088 0.088 0.088 0.088 0.088 0.088 0.088 0.088 0.088 0.088 0.088 0.088 0.088 0.088 0.088 0.088 0.088 0.088 0.088 0.088 0.088 0.088 0.088 0.088 0.089 0.092 0.100 0.107 0.117 0.133 0.150 0.166 0.181 0.194 0.204 0.210 0.213 0.213 0.208 0.201 0.200 0.204 0.211 0.223 0.237 0.252 0.268 0.284 0.302 0.330 0.366 0.406 0.448 0.492 0.537 0.582 0.627 0.669 4.000 4.000 4.000 4.000 4.000 4.000 4.000 4.000 4.000 4.000 4.000 4.000 4.000 4.000 4.000 4.000 4.000 4.000 4.000 4.000 4.000 4.000
4.000 4.000 4.000 4.000 4.000 4.000 1.614 1.142 0.737 0.430 0.312 0.256 0.206 0.160 0.122 0.095 0.088 0.088 0.088 0.088 0.088 0.092 0.107 0.128 0.160 0.203 0.252 0.304 0.359 0.416 0.475 0.535 0.596 4.000 4.000 4.000 4.000 4.000 4.000 4.000 4.000 4.000 4.000 4.000 4.000 4.000 4.000 4.000 4.000 4.000 4.000 4.000 4.000 4.000 4.000 4.000 4.000 4.000 4.000 4.000 4.000 4.000 4.000 4.000 4.000 4.000 4.000 4.000 4.000 4.000 4.000 4.000 4.000 4.000 4.000 4.000 4.000 4.000 4.000 4.000 0.565 0.503 0.442 0.383 0.326 0.271 0.221 0.175 0.133 0.102 0.089 0.088 0.088 0.088 0.088 0.088 0.088 0.088 0.088 0.088 0.088 0.088 0.088 0.088 0.088 0.088 0.088 0.088 0.088 0.088 0.088 0.088 0.088 0.088 0.088 0.088 0.088 0.088 0.088 0.088 0.088 0.088 0.090 0.097 0.107 0.118 0.128 0.140 0.151 0.163 0.177 0.190 0.200 0.208 0.213 0.213 0.210 0.203 0.197 0.199 0.205 0.214 0.225 0.239 0.258 0.280 0.302 0.329 0.366 0.407 0.450 0.492 0.537 0.582 0.627 0.671 0.712 4.000 4.000 4.000 4.000 4.000 4.000 4.000 4.000 4.000 4.000 4.000 4.000 4.000 4.000 4.000 4.000 4.000 4.000 4.000 4.000 4.000 4.000
4.000 4.000 4.000 4.000 4.000 4.000 1.614 1.142 0.737 0.430 0.312 0.256 0.206 0.160 0.122 0.095 0.088 0.088 0.088 0.088 0.088 0.089 0.097 0.114 0.144 0.187 0.235 0.285 0.339 0.397 0.456 0.516 0.577 0.637 4.000 4.000 4.000 4.000 4.000 4.000 4.000 4.000 4.000 4.000 4.000 4.000 4.000 4.000 4.000 4.000 4.000 4.000 4.000 4.000 4.000 4.000 4.000 4.000 4.000 4.000 4.000 4.000 4.000 4.000 4.000 4.000 4.000 4.000 4.000 4.000 4.000 4.000 4.000 4.000 4.000 4.000 4.000 4.000 4.000 0.617 0.555 0.493 0.432 0.374 0.318 0.265 0.215 0.170 0.130 0.099 0.088 0.088 0.088 0.088 0.088 0.088 0.088 0.088 0.088 0.088 0.088 0.088 0.088 0.088 0.088 0.088 0.088 0.088 0.088 0.088 0.088 0.088 0.088 0.088 0.088 0.088 0.088 0.088 0.088 0.088 0.088 0.092 0.100 0.112 0.125 0.140 0.154 0.168 0.180 0.190 0.200 0.210 0.218 0.223 0.223 0.221 0.214 0.207 0.205 0.209 0.216 0.225 0.238 0.253 0.273 0.300 0.331 0.365 0.404 0.448 0.492 4.000 4.000 4.000 4.000 4.000 0.756 4.000 4.000 4.000 4.000 4.000 4.000 4.000 4.000 4.000 4.000 4.000 4.000 4.000 4.000 4.000 4.000 4.000 4.000 4.000 4.000 4.000 4.000
4.000 4.000 4.000 4.000 4.000 4.000 1.614 1.142 0.737 0.430 0.312 0.256 0.206 0.160 0.122 0.095 0.088 0.088 0.088 0.088 0.088 0.088 0.090 0.101 0.128 0.171 0.216 0.266 0.320 0.378 0.437 0.497 0.558 0.618 4.000 4.000 4.000 4.000 4.000 4.000 4.000 4.000 4.000 4.000 4.000 4.000 4.000 4.000 4.000 4.000 4.000 4.000 4.000 4.000 4.000 4.000 4.000 4.000 4.000 4.000 4.000 4.000 4.000 4.000 4.000 4.000 4.000 4.000 4.000 4.000 4.000 4.000 4.000 4.000 4.000 4.000 4.000 4.000 4.000 4.000 0.543 0.482 0.422 0.364 0.308 0.257 0.208 0.164 0.126 0.096 0.088 0.088 0.088 0.088 0.088 0.088 0.088 0.088 0.088 0.088 0.088 0.088 0.088 0.088 0.088 0.088 0.088 0.088 0.088 0.088 0.088 0.088 0.088 0.088 0.088 0.088 0.088 0.088 0.088 0.088 0.092 0.101 0.115 0.131 0.148 0.166 0.183 0.200 0.214 0.226 0.236 0.243 0.248 0.249 0.246 0.241 0.232 0.224 0.227 0.233 0.242 0.253 0.268 0.285 0.305 0.331 0.363 0.399 0.441 4.000 4.000 4.000 4.000 4.000 4.000 4.000 4.000 4.000 4.000 4.000 4.000 4.000 4.000 4.000 4.000 4.000 4.000 4.000 4.000 4.000 4.000 4.000 4.000 4.000 4.000 4.000 4.000 4.000 4.000
4.000 4.000 4.000 4.000 4.000 4.000 1.614 1.142 0.737 0.430 0.312 0.256 0.206 0.160 0.122 0.095 0.088 0.088 0.088 0.088 0.088 0.088 0.088 0.092 0.112 0.153 0.197 0.247 0.301 0.359 0.418 0.478 0.539 0.599 4.000 4.000 4.000 4.000 4.000 4.000 4.000 4.000 4.000 4.000 4.000 4.000 4.000 4.000 4.000 4.000 4.000 4.000 4.000 4.000 4.000 4.000 4.000 4.000 4.000 4.000 4.000 4.000 4.000 4.000 4.000 4.000 4.000 4.000 4.000 4.000 4.000 4.000 4.000 4.000 4.000 4.000 4.000 4.000 4.000 4.000 0.528 0.468 0.410 0.353 0.299 0.247 0.200 0.157 0.121 0.094 0.088 0.088 0.088 0.088 0.088 0.088 0.088 0.088 0.088 0.088 0.088 0.088 0.088 0.088 0.088 0.088 0.088 0.088 0.088 0.088 0.088 0.088 0.088 0.088 0.088 0.088 0.088 0.088 0.088 0.090 0.100 0.115 0.134 0.153 0.174 0.195 0.215 0.233 0.249 0.265 0.276 0.285 0.287 0.287 0.285 0.277 0.267 0.263 0.267 0.276 0.287 0.299 0.314 0.331 0.349 0.369 0.395 0.430 4.000 4.000 4.000 4.000 4.000 4.000 4.000 4.000 4.000 4.000 4.000 4.000 4.000 4.000 4.000 4.000 4.000 4.000 4.000 4.000 4.000 4.000 4.000 4.000 4.000 4.000 4.000 4.000 4.000 4.000 4.000
4.000 4.000 4.000 4.000 4.000 4.000 1.614 1.142 0.737 0.430 0.312 0.256 0.206 0.160 0.122 0.095 0.088 0.088 0.088 0.088 0.088 0.088 0.088 0.088 0.101 0.135 0.178 0.228 0.282 0.339 0.399 0.459 0.520 0.580 4.000 4.000 4.000 4.000 4.000 4.000 4.000 4.000 4.000 4.000 4.000 4.000 4.000 4.000 4.000 4.000 4.000 4.000 4.000 4.000 4.000 4.000 4.000 4.000 4.000 4.000 4.000 4.000 4.000 4.000 4.000 4.000 4.000 4.000 4.000 4.000 4.000 4.000 4.000 4.000 4.000 4.000 4.000 4.000 4.000 4.000 0.511 0.452 0.395 0.340 0.287 0.237 0.191 0.151 0.115 0.094 0.088 0.088 0.088 0.088 0.088 0.088 0.088 0.088 0.088 0.088 0.088 0.088 0.088 0.088 0.088 0.088 0.088 0.088 0.088 0.088 0.088 0.088 0.088 0.088 0.088 0.088 0.088 0.088 0.089 0.097 0.112 0.133 0.156 0.179 0.203 0.227 0.250 0.270 0.289 0.305 0.318 0.326 0.331 0.331 0.328 0.323 0.313 0.312 0.317 0.327 0.337 0.348 0.364 0.380 0.398 0.416 0.438 4.000 4.000 4.000 4.000 4.000 4.000 4.000 4.000 4.000 4.000 4.000 4.000 4.000 4.000 4.000 4.000 4.000 4.000 4.000 4.000 4.000 4.000 4.000 4.000 4.000 4.000 4.000 4.000 4.000 4.000 4.000 4.000
4.000 4.000 4.000 4.000 4.000 4.000 1.614 1.142 0.737 0.430 0.312 0.256 0.206 0.160 0.122 0.095 0.088 0.088 0.088 0.088 0.088 0.088 0.088 0.088 0.094 0.120 0.162 0.211 0.265 0.322 0.381 0.440 0.500 0.561 4.000 4.000 4.000 4.000 4.000 4.000 4.000 4.000 4.000 4.000 4.000 4.000 4.000 4.000 4.000 4.000 4.000 4.000 4.000 4.000 4.000 4.000 4.000 4.000 4.000 4.000 4.000 4.000 4.000 4.000 4.000 4.000 4.000 4.000 4.000 4.000 4.000 4.000 4.000 4.000 4.000 4.000 4.000 4.000 4.000 4.000 0.499 0.441 0.384 0.328 0.276 0.226 0.181 0.142 0.111 0.094 0.088 0.088 0.088 0.088 0.088 0.088 0.088 0.088 0.088 0.088 0.088 0.088 0.088 0.088 0.088 0.088 0.088 0.088 0.088 0.088 0.088 0.088 0.088 0.088 0.088 0.088 0.088 0.088 0.092 0.109 0.129 0.153 0.179 0.205 0.232 0.259 0.285 0.309 0.331 0.349 0.363 0.371 0.375 0.377 0.376 0.371 0.363 0.364 0.370 0.379 0.389 0.400 0.415 0.430 0.447 0.464 0.485 4.000 4.000 4.000 4.000 4.000 4.000 4.000 4.000 4.000 4.000 4.000 4.000 4.000 4.000 4.000 4.000 4.000 4.000 4.000 4.000 4.000 4.000 4.000 4.000 4.000 4.000 4.000 4.000 4.000 4.000 4.000 4.000
4.000 4.000 4.000 4.000 4.000 4.000 1.614 1.142 0.737 0.430 0.312 0.256 0.206 0.160 0.122 0.095 0.088 0.088 0.088 0.088 0.088 0.088 0.088 0.088 0.092 0.112 0.148 0.195 0.249 0.304 0.362 0.421 0.481 0.542 4.000 4.000 4.000 4.000 4.000 4.000 4.000 4.000 4.000 4.000 4.000 4.000 4.000 4.000 4.000 4.000 4.000 4.000 4.000 4.000 4.000 4.000 4.000 4.000 4.000 4.000 4.000 4.000 4.000 4.000 4.000 4.000 4.000 4.000 4.000 4.000 4.000 4.000 4.000 4.000 4.000 4.000 4.000 4.000 4.000 4.000 0.494 0.438 0.383 0.327 0.273 0.222 0.175 0.135 0.109 0.092 0.088 0.088 0.088 0.088 0.088 0.088 0.088 0.088 0.088 0.088 0.088 0.088 0.088 0.088 0.088 0.088 0.088 0.088 0.088 0.088 0.088 0.088 0.088 0.088 0.088 0.088 0.088 0.089 0.102 0.122 0.146 0.174 0.203 0.232 0.262 0.293 0.321 0.348 0.372 0.393 0.408 0.418 0.424 0.427 0.427 0.421 0.415 0.417 0.423 0.431 0.442 0.453 0.465 0.480 0.496 0.513 4.000 4.000 4.000 4.000 4.000 4.000 4.000 4.000 4.000 4.000 4.000 4.000 4.000 4.000 4.000 4.000 4.000 4.000 4.000 4.000 4.000 4.000 4.000 4.000 4.000 4.000 4.000 4.000 4.000 4.000 4.000 4.000 4.000
4.000 4.000 4.000 4.000 4.000 4.000 1.614 1.142 0.737 0.430 0.312 0.256 0.206 0.160 0.122 0.095 0.088 0.088 0.088 0.088 0.088 0.088 0.088 0.088 0.091 0.107 0.142 0.186 0.234 0.287 0.344 0.404 0.464 0.526 0.588 4.000 4.000 4.000 4.000 4.000 4.000 4.000 4.000 4.000 4.000 4.000 4.000 4.000 4.000 4.000 4.000 4.000 4.000 4.000 4.000 4.000 4.000 4.000 4.000 4.000 4.000 4.000 4.000 4.000 4.000 4.000 4.000 4.000 4.000 4.000 4.000 4.000 4.000 4.000 4.000 4.000 4.000 4.000 4.000 0.552 0.498 0.442 0.387 0.333 0.279 0.228 0.181 0.141 0.110 0.091 0.088 0.088 0.088 0.088 0.088 0.088 0.088 0.088 0.088 0.088 0.088 0.088 0.088 0.088 0.088 0.088 0.088 0.088 0.088 0.088 0.088 0.088 0.088 0.088 0.088 0.088 0.088 0.093 0.113 0.136 0.164 0.195 0.227 0.259 0.293 0.326 0.358 0.387 0.415 0.438 4.000 4.000 4.000 4.000 4.000 4.000 0.470 0.472 0.477 0.486 0.494 0.505 0.516 0.528 0.544 0.560 4.000 4.000 4.000 4.000 4.000 4.000 4.000 4.000 4.000 4.000 4.000 4.000 4.000 4.000 4.000 4.000 4.000 4.000 4.000 4.000 4.000 4.000 4.000 4.000 4.000 4.000 4.000 4.000 4.000 4.000 4.000 4.000 4.000
4.000 4.000 4.000 4.000 4.000 4.000 1.614 1.142 0.737 0.430 0.312 0.256 0.206 0.160 0.122 0.095 0.088 0.088 0.088 0.088 0.088 0.088 0.088 0.088 0.089 0.104 0.136 0.178 0.225 0.277 0.332 0.391 0.452 0.514 0.577 4.000 4.000 4.000 4.000 4.000 4.000 4.000 4.000 4.000 4.000 4.000 4.000 4.000 4.000 4.000 4.000 4.000 4.000 4.000 4.000 4.000 4.000 4.000 4.000 4.000 4.000 4.000 4.000 4.000 4.000 4.000 4.000 4.000 4.000 4.000 4.000 4.000 4.000 4.000 4.000 4.000 4.000 4.000 4.000 0.703 0.652 0.599 0.544 0.341 0.290 0.240 0.193 0.154 0.120 0.098 0.090 0.088 0.088 0.088 0.088 0.088 0.088 0.088 0.088 0.088 0.088 0.088 0.088 0.088 0.088 0.088 0.088 0.088 0.088 0.088 0.088 0.088 0.088 0.088 0.088 0.088 0.089 0.101 0.124 0.151 0.181 0.215 0.250 0.286 0.323 0.359 0.394 0.427 4.000 4.000 4.000 4.000 4.000 4.000 4.000 4.000 4.000 4.000 0.532 0.539 0.546 0.554 0.563 0.574 0.589 0.607 4.000 4.000 4.000 4.000 4.000 4.000 4.000 4.000 4.000 4.000 4.000 4.000 4.000 4.000 4.000 4.000 4.000 4.000 4.000 4.000 4.000 4.000 4.000 4.000 4.000 4.000 4.000 4.000 4.000 4.000 4.000 4.000 4.000
4.000 4.000 4.000 4.000 4.000 4.000 1.614 1.142 0.737 0.430 0.312 0.256 0.206 0.160 0.122 0.095 0.088 0.088 0.088 0.088 0.088 0.088 0.088 0.088 0.088 0.100 0.133 0.170 0.215 0.267 0.323 0.381 0.442 0.504 0.566 4.000 4.000 4.000 4.000 4.000 4.000 4.000 4.000 4.000 4.000 4.000 4.000 4.000 4.000 4.000 4.000 4.000 4.000 4.000 4.000 4.000 4.000 4.000 4.000 4.000 4.000 4.000 4.000 4.000 4.000 4.000 4.000 4.000 4.000 4.000 4.000 4.000 4.000 4.000 4.000 4.000 4.000 4.000 0.759 0.710 0.661 0.610 0.556 0.503 0.451 0.404 0.211 0.168 0.134 0.112 0.100 0.092 0.088 0.088 0.088 0.088 0.088 0.088 0.088 0.088 0.088 0.088 0.088 0.088 0.088 0.088 0.088 0.088 0.088 0.088 0.088 0.088 0.088 0.088 0.088 0.088 0.092 0.109 0.135 0.165 0.198 0.235 0.274 0.313 0.352 0.392 0.431 4.000 4.000 4.000 4.000 4.000 4.000 4.000 4.000 4.000 4.000 4.000 4.000 0.591 0.595 0.600 0.610 0.622 0.635 0.650 4.000 4.000 4.000 4.000 4.000 4.000 4.000 4.000 4.000 4.000 4.000 4.000 4.000 4.000 4.000 4.000 4.000 4.000 4.000 4.000 4.000 4.000 4.000 4.000 4.000 4.000 4.000 4.000 4.000 4.000 4.000 4.000 4.000
4.000 4.000 4.000 4.000 4.000 4.000 1.614 1.142 0.737 0.430 0.312 0.256 0.206 0.160 0.122 0.095 0.088 0.088 0.088 0.088 0.088 0.088 0.088 0.088 0.088 0.097 0.127 0.164 0.208 0.259 0.313 0.371 0.431 0.492 0.554 4.000 4.000 4.000 4.000 4.000 4.000 4.000 4.000 4.000 4.000 4.000 4.000 4.000 4.000 4.000 4.000 4.000 4.000 4.000 4.000 4.000 4.000 4.000 4.000 4.000 4.000 4.000 4.000 4.000 4.000 4.000 4.000 4.000 4.000 4.000 4.000 4.000 4.000 4.000 4.000 4.000 4.000 4.000 0.766 0.722 0.672 0.623 0.572 0.521 0.471 0.422 0.377 0.186 0.152 0.131 0.115 0.101 0.092 0.088 0.088 0.088 0.088 0.088 0.088 0.088 0.088 0.088 0.088 0.088 0.088 0.088 0.088 0.088 0.088 0.088 0.088 0.088 0.088 0.088 0.088 0.088 0.096 0.117 0.145 0.179 0.214 0.254 0.296 0.338 0.381 0.424 0.467 4.000 4.000 4.000 4.000 4.000 4.000 4.000 4.000 4.000 4.000 4.000 4.000 0.641 0.641 0.646 0.654 0.665 0.678 0.692 4.000 4.000 4.000 4.000 4.000 4.000 4.000 4.000 4.000 4.000 4.000 4.000 4.000 4.000 4.000 4.000 4.000 4.000 4.000 4.000 4.000 4.000 4.000 4.000 4.000 4.000 4.000 4.000 4.000 4.000 4.000 4.000 4.000
4.000 4.000 4.000 4.000 4.000 4.000 1.614 1.142 0.737 0.430 0.312 0.256 0.206 0.160 0.122 0.095 0.088 0.088 0.088 0.088 0.088 0.088 0.088 0.088 0.088 0.095 0.121 0.157 0.202 0.252 0.305 0.361 0.420 0.481 0.543 4.000 4.000 4.000 4.000 4.000 4.000 4.000 4.000 4.000 4.000 4.000 4.000 4.000 4.000 4.000 4.000 4.000 4.000 4.000 4.000 4.000 4.000 4.000 4.000 4.000 4.000 4.000 4.000 4.000 4.000 4.000 4.000 4.000 4.000 4.000 4.000 4.000 4.000 4.000 4.000 4.000 4.000 0.817 0.775 0.732 0.688 0.641 0.592 0.541 0.491 0.441 0.395 0.354 0.173 0.153 0.133 0.115 0.100 0.090 0.088 0.088 0.088 0.088 0.088 0.088 0.088 0.088 0.088 0.088 0.088 0.088 0.088 0.088 0.088 0.088 0.088 0.088 0.088 0.088 0.088 0.089 0.101 0.124 0.155 0.191 0.230 0.273 0.318 0.364 0.410 0.456 4.000 4.000 4.000 4.000 4.000 4.000 4.000 4.000 4.000 4.000 4.000 4.000 4.000 4.000 0.687 0.690 0.696 0.705 0.715 0.727 4.000 4.000 4.000 4.000 4.000 4.000 4.000 4.000 4.000 4.000 4.000 4.000 4.000 4.000 4.000 4.000 4.000 4.000 4.000 4.000 4.000 4.000 4.000 4.000 4.000 4.000 4.000 4.000 4.000 4.000 4.000 4.000 4.000
4.000 4.000 4.000 4.000 4.000 4.000 1.614 1.142 0.737 0.430 0.312 0.256 0.206 0.160 0.122 0.095 0.088 0.088 0.088 0.088 0.088 0.088 0.088 0.088 0.088 0.094 0.115 0.151 0.196 0.244 0.296 0.351 0.410 0.471 0.533 4.000 4.000 4.000 4.000 4.000 4.000 4.000 4.000 4.000 4.000 4.000 4.000 4.000 4.000 4.000 4.000 4.000 4.000 4.000 4.000 4.000 4.000 4.000 4.000 4.000 4.000 4.000 4.000 4.000 4.000 4.000 4.000 4.000 4.000 4.000 4.000 4.000 4.000 4.000 4.000 4.000 0.861 0.826 0.786 0.745 0.703 0.658 0.610 0.560 0.509 0.461 0.415 0.375 0.346 0.175 0.153 0.131 0.112 0.097 0.089 0.088 0.088 0.088 0.088 0.088 0.088 0.088 0.088 0.088 0.088 0.088 0.088 0.088 0.088 0.088 0.088 0.088 0.089 0.091 0.092 0.096 0.112 0.136 0.168 0.206 0.248 0.292 0.341 0.390 0.439 0.488 4.000 4.000 4.000 4.000 4.000 4.000 4.000 4.000 4.000 4.000 4.000 4.000 4.000 4.000 4.000 4.000 0.735 0.740 0.746 0.758 0.772 4.000 4.000 4.000 4.000 4.000 4.000 4.000 4.000 4.000 4.000 4.000 4.000 4.000 4.000 4.000 4.000 4.000 4.000 4.000 4.000 4.000 4.000 4.000 4.000 4.000 4.000 4.000 4.000 4.000 4.000 4.000 4.000
4.000 4.000 4.000 4.000 4.000 4.000 1.614 1.142 0.737 0.430 0.312 0.256 0.206 0.160 0.122 0.095 0.088 0.088 0.088 0.088 0.088 0.088 0.088 0.088 0.088 0.092 0.110 0.145 0.188 0.234 0.286 0.342 0.401 0.461 0.523 4.000 4.000 4.000 4.000 4.000 4.000 4.000 4.000 4.000 4.000 4.000 4.000 4.000 4.000 4.000 4.000 4.000 4.000 4.000 4.000 4.000 4.000 4.000 4.000 4.000 4.000 4.000 4.000 4.000 4.000 4.000 4.000 4.000 4.000 4.000 4.000 4.000 4.000 4.000 4.000 0.897 0.866 0.832 0.796 0.758 0.718 0.673 0.628 0.578 0.529 0.482 0.436 0.399 0.373 0.346 0.321 0.148 0.125 0.107 0.092 0.088 0.088 0.088 0.088 0.088 0.088 0.088 0.088 0.088 0.088 0.088 0.088 0.088 0.088 0.089 0.092 0.096 0.101 0.106 0.109 0.115 0.132 0.159 0.196 0.234 0.276 0.320 0.365 0.415 0.466 4.000 4.000 4.000 4.000 4.000 4.000 4.000 4.000 4.000 4.000 4.000 4.000 4.000 4.000 4.000 4.000 4.000 4.000 0.769 0.775 0.784 0.793 4.000 4.000 4.000 4.000 4.000 4.000 4.000 4.000 4.000 4.000 4.000 4.000 4.000 4.000 4.000 4.000 4.000 4.000 4.000 4.000 4.000 4.000 4.000 4.000 4.000 4.000 4.000 4.000 4.000 4.000 4.000 4.000
4.000 4.000 4.000 4.000 4.000 4.000 1.614 1.142 0.737 0.430 0.312 0.256 0.206 0.160 0.122 0.095 0.088 0.088 0.088 0.088 0.088 0.088 0.088 0.088 0.088 0.091 0.107 0.139 0.178 0.225 0.277 0.332 0.391 0.450 0.511 0.573 4.000 4.000 4.000 4.000 4.000 4.000 4.000 4.000 4.000 4.000 4.000 4.000 4.000 4.000 4.000 4.000 4.000 4.000 4.000 4.000 4.000 4.000 4.000 4.000 4.000 4.000 4.000 4.000 4.000 4.000 4.000 4.000 4.000 4.000 4.000 4.000 4.000 4.000 0.920 0.897 0.871 0.839 0.807 0.770 0.733 0.690 0.646 0.598 0.550 0.503 0.460 0.428 0.399 0.370 0.341 0.314 0.140 0.118 0.100 0.089 0.088 0.088 0.088 0.088 0.088 0.088 0.088 0.088 0.088 0.088 0.088 0.089 0.092 0.100 0.107 0.115 0.123 0.129 0.132 0.141 0.162 0.193 0.229 0.270 0.313 0.356 0.400 0.447 0.495 4.000 4.000 4.000 4.000 4.000 4.000 4.000 4.000 4.000 4.000 4.000 4.000 4.000 4.000 4.000 4.000 4.000 4.000 4.000 0.796 0.801 0.809 0.821 4.000 4.000 4.000 4.000 4.000 4.000 4.000 4.000 4.000 4.000 4.000 4.000 4.000 4.000 4.000 4.000 4.000 4.000 4.000 4.000 4.000 4.000 4.000 4.000 4.000 4.000 4.000 4.000 4.000 4.000 4.000
4.000 4.000 4.000 4.000 4.000 4.000 1.614 1.142 0.737 0.430 0.312 0.256 0.206 0.160 0.122 0.095 0.088 0.088 0.088 0.088 0.088 0.088 0.088 0.088 0.088 0.089 0.104 0.134 0.170 0.215 0.267 0.321 0.378 0.437 0.498 0.560 4.000 4.000 4.000 4.000 4.000 4.000 4.000 4.000 4.000 4.000 4.000 4.000 4.000 4.000 4.000 4.000 4.000 4.000 4.000 4.000 4.000 4.000 4.000 4.000 4.000 4.000 4.000 4.000 4.000 4.000 4.000 4.000 4.000 4.000 4.000 4.000 0.947 0.932 0.915 0.896 0.874 0.847 4.000 4.000 4.000 4.000 4.000 0.619 0.571 0.527 0.489 0.458 0.426 0.394 0.362 0.331 0.302 0.276 0.255 0.092 0.088 0.088 0.088 0.088 0.088 0.088 0.088 0.088 0.088 0.088 0.090 0.098 0.108 0.119 0.130 0.141 0.149 0.156 0.162 0.173 0.197 0.232 0.268 0.308 0.351 0.395 0.439 0.484 0.530 4.000 4.000 4.000 4.000 4.000 4.000 4.000 4.000 4.000 4.000 4.000 4.000 4.000 4.000 4.000 4.000 4.000 4.000 4.000 4.000 0.813 0.820 0.828 0.843 4.000 4.000 4.000 4.000 4.000 4.000 4.000 4.000 4.000 4.000 4.000 4.000 4.000 4.000 4.000 4.000 4.000 4.000 4.000 4.000 4.000 4.000 4.000 4.000 4.000 4.000 4.000 4.000 4.000 4.000
4.000 4.000 4.000 4.000 4.000 4.000 1.614 1.142 0.737 0.430 0.312 0.256 0.206 0.160 0.122 0.095 0.088 0.088 0.088 0.088 0.088 0.088 0.088 0.088 0.088 0.088 0.100 0.127 0.164 0.208 0.257 0.309 0.365 0.424 0.485 0.547 4.000 4.000 4.000 4.000 4.000 4.000 4.000 4.000 4.000 4.000 4.000 4.000 4.000 4.000 4.000 4.000 4.000 4.000 4.000 4.000 4.000 4.000 4.000 4.000 4.000 4.000 4.000 4.000 4.000 4.000 4.000 4.000 4.000 4.000 0.950 0.940 0.932 0.923 0.911 0.896 4.000 4.000 4.000 4.000 4.000 4.000 4.000 4.000 4.000 0.556 0.522 0.488 0.453 0.417 0.382 0.348 0.316 0.288 0.263 0.244 0.236 0.236 0.236 0.236 0.236 0.236 0.236 0.236 0.088 0.092 0.102 0.115 0.129 0.143 0.157 0.170 0.180 0.190 0.196 0.207 0.238 0.272 0.310 0.349 0.391 0.435 0.479 0.523 0.568 4.000 4.000 4.000 4.000 4.000 4.000 4.000 4.000 4.000 4.000 4.000 4.000 4.000 4.000 4.000 4.000 4.000 4.000 4.000 4.000 4.000 0.824 0.832 0.843 4.000 4.000 4.000 4.000 4.000 4.000 4.000 4.000 4.000 4.000 4.000 4.000 4.000 4.000 4.000 4.000 4.000 4.000 4.000 4.000 4.000 4.000 4.000 4.000 4.000 4.000 4.000 4.000 4.000 4.000
4.000 4.000 4.000 4.000 4.000 4.000 1.614 1.142 0.737 0.430 0.312 0.256 0.206 0.160 0.122 0.095 0.088 0.088 0.088 0.088 0.088 0.088 0.088 0.088 0.088 0.088 0.096 0.121 0.157 0.200 0.247 0.299 0.355 0.413 0.472 0.533 4.000 4.000 4.000 4.000 4.000 4.000 4.000 4.000 4.000 4.000 4.000 4.000 4.000 4.000 4.000 4.000 4.000 4.000 4.000 4.000 4.000 4.000 4.000 4.000 4.000 4.000 4.000 4.000 4.000 4.000 4.000 4.000 4.000 4.000 0.926 0.921 0.916 0.910 0.904 4.000 4.000 4.000 4.000 4.000 4.000 4.000 4.000 4.000 4.000 4.000 0.553 0.517 0.479 0.440 0.402 0.365 0.330 0.299 0.271 0.249 0.237 0.236 0.236 0.236 0.236 0.236 0.236 0.236 0.241 0.252 0.267 0.283 0.301 0.318 0.335 0.349 0.362 0.373 0.233 0.247 0.280 0.314 0.354 0.393 0.434 0.476 0.520 0.562 0.606 4.000 4.000 4.000 4.000 4.000 4.000 4.000 4.000 4.000 4.000 4.000 4.000 4.000 4.000 4.000 4.000 4.000 4.000 4.000 4.000 4.000 0.828 0.832 0.840 4.000 4.000 4.000 4.000 4.000 4.000 4.000 4.000 4.000 4.000 4.000 4.000 4.000 4.000 4.000 4.000 4.000 4.000 4.000 4.000 4.000 4.000 4.000 4.000 4.000 4.000 4.000 4.000 4.000 4.000
4.000 4.000 4.000 4.000 4.000 4.000 1.614 1.142 0.737 0.430 0.312 0.256 0.206 0.160 0.122 0.095 0.088 0.088 0.088 0.088 0.088 0.088 0.088 0.088 0.088 0.088 0.093 0.115 0.151 0.191 0.237 0.289 0.343 0.400 0.459 0.520 4.000 4.000 4.000 4.000 4.000 4.000 4.000 4.000 4.000 4.000 4.000 4.000 4.000 4.000 4.000 4.000 4.000 4.000 4.000 4.000 4.000 4.000 4.000 4.000 4.000 4.000 4.000 4.000 4.000 4.000 4.000 4.000 4.000 0.899 0.897 0.897 0.897 0.897 4.000 4.000 4.000 4.000 4.000 4.000 4.000 4.000 4.000 4.000 4.000 4.000 0.583 0.543 0.501 0.460 0.419 0.381 0.343 0.309 0.278 0.254 0.239 0.236 0.236 0.236 0.236 0.236 0.236 0.240 0.252 0.269 0.288 0.308 0.328 0.349 0.367 0.384 0.400 0.412 0.420 0.437 0.471 0.508 0.546 0.438 0.478 0.518 0.559 0.602 0.643 4.000 4.000 4.000 4.000 4.000 4.000 4.000 4.000 4.000 4.000 4.000 4.000 4.000 4.000 4.000 4.000 4.000 4.000 4.000 4.000 4.000 4.000 0.831 0.835 4.000 4.000 4.000 4.000 4.000 4.000 4.000 4.000 4.000 4.000 4.000 4.000 4.000 4.000 4.000 4.000 4.000 4.000 4.000 4.000 4.000 4.000 4.000 4.000 4.000 4.000 4.000 4.000 4.000 4.000
4.000 4.000 4.000 4.000 4.000 4.000 1.614 1.142 0.737 0.430 0.312 0.256 0.206 0.160 0.122 0.095 0.088 0.088 0.088 0.088 0.088 0.088 0.088 0.088 0.088 0.088 0.091 0.108 0.142 0.181 0.228 0.278 0.331 0.387 0.446 0.505 0.566 4.000 4.000 4.000 4.000 4.000 4.000 4.000 4.000 4.000 4.000 4.000 4.000 4.000 4.000 4.000 4.000 4.000 4.000 4.000 4.000 4.000 4.000 4.000 4.000 4.000 4.000 4.000 4.000 4.000 4.000 4.000 4.000 0.865 0.868 0.872 0.875 0.880 4.000 4.000 4.000 4.000 4.000 4.000 4.000 4.000 4.000 4.000 4.000 4.000 4.000 0.567 0.522 0.478 0.434 0.392 0.354 0.319 0.285 0.258 0.240 0.236 0.236 0.236 0.236 0.236 0.238 0.250 0.267 0.288 0.310 0.333 0.357 0.381 0.401 0.421 0.439 0.453 0.462 0.482 0.516 0.555 0.592 0.631 0.670 0.709 0.600 0.640 0.678 4.000 4.000 4.000 4.000 4.000 4.000 4.000 4.000 4.000 4.000 4.000 4.000 4.000 4.000 4.000 4.000 4.000 4.000 4.000 4.000 4.000 4.000 0.826 0.826 4.000 4.000 4.000 4.000 4.000 4.000 4.000 4.000 4.000 4.000 4.000 4.000 4.000 4.000 4.000 4.000 4.000 4.000 4.000 4.000 4.000 4.000 4.000 4.000 4.000 4.000 4.000 4.000 4.000 4.000
4.000 4.000 4.000 4.000 4.000 4.000 1.614 1.142 0.737 0.430 0.312 0.256 0.206 0.160 0.122 0.095 0.088 0.088 0.088 0.088 0.088 0.088 0.088 0.088 0.088 0.088 0.089 0.103 0.133 0.172 0.217 0.265 0.318 0.373 0.430 0.489 0.548 4.000 4.000 4.000 4.000 4.000 4.000 4.000 4.000 4.000 4.000 4.000 4.000 4.000 4.000 4.000 4.000 4.000 4.000 4.000 4.000 4.000 4.000 4.000 4.000 4.000 4.000 4.000 4.000 4.000 4.000 4.000 0.827 0.830 0.835 0.842 0.851 4.000 4.000 4.000 4.000 4.000 4.000 4.000 4.000 4.000 4.000 4.000 4.000 4.000 4.000 0.586 0.539 0.492 0.447 0.402 0.362 0.325 0.291 0.261 0.242 0.236 0.236 0.236 0.236 0.237 0.246 0.263 0.283 0.308 0.333 0.360 0.387 0.413 0.437 0.460 0.479 0.494 0.507 0.529 0.562 0.599 0.639 0.676 0.713 0.751 0.788 0.826 0.714 4.000 4.000 4.000 4.000 4.000 4.000 4.000 4.000 4.000 4.000 4.000 4.000 4.000 4.000 4.000 4.000 4.000 4.000 4.000 4.000 4.000 4.000 0.816 0.813 0.812 4.000 4.000 4.000 4.000 4.000 4.000 4.000 4.000 4.000 4.000 4.000 4.000 4.000 4.000 4.000 4.000 4.000 4.000 4.000 4.000 4.000 4.000 4.000 4.000 4.000 4.000 4.000 4.000 4.000
4.000 4.000 4.000 4.000 4.000 4.000 1.614 1.142 0.737 0.430 0.312 0.256 0.206 0.160 0.122 0.095 0.088 0.088 0.088 0.088 0.088 0.088 0.088 0.088 0.088 0.088 0.088 0.099 0.124 0.162 0.204 0.252 0.303 0.357 0.413 0.470 0.529 4.000 4.000 4.000 4.000 4.000 4.000 4.000 4.000 4.000 4.000 4.000 4.000 4.000 4.000 4.000 4.000 4.000 4.000 4.000 4.000 4.000 4.000 4.000 4.000 4.000 4.000 4.000 4.000 4.000 4.000 0.784 0.787 0.791 0.799 0.808 0.819 4.000 4.000 4.000 4.000 4.000 4.000 4.000 4.000 4.000 4.000 4.000 4.000 4.000 4.000 0.599 0.550 0.503 0.455 0.410 0.369 0.329 0.295 0.264 0.242 0.236 0.236 0.236 0.236 0.240 0.256 0.277 0.301 0.328 0.357 0.387 0.417 0.446 0.472 0.498 0.520 0.536 0.553 0.577 0.610 0.645 0.683 0.721 0.757 0.791 0.826 0.861 4.000 4.000 4.000 4.000 4.000 4.000 4.000 4.000 4.000 4.000 4.000 4.000 4.000 4.000 4.000 4.000 4.000 4.000 4.000 4.000 4.000 4.000 4.000 0.804 0.797 0.793 4.000 4.000 4.000 4.000 4.000 4.000 4.000 4.000 4.000 4.000 4.000 4.000 4.000 4.000 4.000 4.000 4.000 4.000 4.000 4.000 4.000 4.000 4.000 4.000 4.000 4.000 4.000 4.000 4.000
4.000 4.000 4.000 4.000 4.000 4.000 1.614 1.142 0.737 0.430 0.312 0.256 0.206 0.160 0.122 0.095 0.088 0.088 0.088 0.088 0.088 0.088 0.088 0.088 0.088 0.088 0.088 0.095 0.118 0.152 0.191 0.238 0.287 0.339 0.394 0.449 0.505 4.000 4.000 4.000 4.000 4.000 4.000 4.000 4.000 4.000 4.000 4.000 4.000 4.000 4.000 4.000 4.000 4.000 4.000 4.000 4.000 4.000 4.000 4.000 4.000 4.000 4.000 4.000 4.000 0.748 0.741 0.740 0.743 0.750 0.759 0.770 0.785 4.000 4.000 4.000 4.000 4.000 4.000 4.000 4.000 4.000 4.000 4.000 4.000 4.000 4.000 0.606 0.556 0.506 0.460 0.415 0.372 0.332 0.296 0.267 0.243 0.236 0.236 0.236 0.237 0.248 0.267 0.291 0.318 0.349 0.381 0.413 0.446 0.477 0.507 0.536 0.561 0.580 4.000 4.000 4.000 4.000 4.000 0.762 0.796 0.829 0.862 0.894 4.000 4.000 4.000 4.000 4.000 4.000 4.000 4.000 4.000 4.000 4.000 4.000 4.000 4.000 4.000 4.000 4.000 4.000 4.000 4.000 4.000 4.000 4.000 0.788 0.780 0.774 0.769 4.000 4.000 4.000 4.000 4.000 4.000 4.000 4.000 4.000 4.000 4.000 4.000 4.000 4.000 4.000 4.000 4.000 4.000 4.000 4.000 4.000 4.000 4.000 4.000 4.000 4.000 4.000 4.000
4.000 4.000 4.000 4.000 4.000 4.000 1.614 1.142 0.737 0.430 0.312 0.256 0.206 0.160 0.122 0.095 0.088 0.088 0.088 0.088 0.088 0.088 0.088 0.088 0.088 0.088 0.088 0.091 0.111 0.142 0.181 0.223 0.270 0.320 0.372 0.425 0.479 0.534 4.000 4.000 4.000 4.000 4.000 4.000 4.000 4.000 4.000 4.000 4.000 4.000 4.000 4.000 4.000 4.000 4.000 4.000 4.000 4.000 4.000 4.000 4.000 4.000 4.000 4.000 0.712 0.701 0.696 0.694 0.697 0.705 0.716 0.729 0.745 4.000 4.000 4.000 4.000 4.000 4.000 4.000 4.000 4.000 4.000 4.000 4.000 4.000 4.000 0.606 0.556 0.506 0.460 0.415 0.372 0.332 0.296 0.267 0.243 0.236 0.236 0.236 0.240 0.255 0.278 0.305 0.335 0.367 0.401 0.437 0.472 0.507 0.541 0.573 4.000 4.000 4.000 4.000 4.000 4.000 4.000 4.000 4.000 0.864 0.894 0.924 4.000 4.000 4.000 4.000 4.000 4.000 4.000 4.000 4.000 4.000 4.000 4.000 4.000 4.000 4.000 4.000 4.000 4.000 4.000 4.000 4.000 4.000 4.000 0.771 0.760 0.750 0.742 4.000 4.000 4.000 4.000 4.000 4.000 4.000 4.000 4.000 4.000 4.000 4.000 4.000 4.000 4.000 4.000 4.000 4.000 4.000 4.000 4.000 4.000 4.000 4.000 4.000 4.000 4.000 4.000
4.000 4.000 4.000 4.000 4.000 4.000 1.614 1.142 0.737 0.430 0.312 0.256 0.206 0.160 0.122 0.095 0.088 0.088 0.088 0.088 0.088 0.088 0.088 0.088 0.088 0.088 0.088 0.089 0.104 0.133 0.169 0.210 0.254 0.302 0.350 0.401 0.454 0.506 4.000 4.000 4.000 4.000 4.000 4.000 4.000 4.000 4.000 4.000 4.000 4.000 4.000 4.000 4.000 4.000 4.000 4.000 4.000 4.000 4.000 4.000 4.000 4.000 0.714 0.683 0.664 0.652 0.648 0.647 0.650 0.657 0.670 0.686 0.702 4.000 4.000 4.000 4.000 4.000 4.000 4.000 4.000 4.000 4.000 4.000 4.000 4.000 4.000 0.599 0.550 0.503 0.455 0.410 0.369 0.329 0.295 0.264 0.242 0.236 0.236 0.236 0.244 0.263 0.289 0.318 0.349 0.384 0.421 0.460 0.498 0.536 0.573 4.000 4.000 4.000 4.000 4.000 4.000 4.000 4.000 4.000 4.000 4.000 0.922 0.949 4.000 4.000 4.000 4.000 4.000 4.000 4.000 4.000 4.000 4.000 4.000 4.000 4.000 4.000 4.000 4.000 4.000 4.000 4.000 4.000 4.000 4.000 0.769 0.752 0.737 0.724 0.714 0.706 4.000 4.000 4.000 4.000 4.000 4.000 4.000 4.000 4.000 4.000 4.000 4.000 4.000 4.000 4.000 4.000 4.000 4.000 4.000 4.000 4.000 4.000 4.000 4.000 4.000 4.000 4.000
4.000 4.000 4.000 4.000 4.000 4.000 1.614 1.142 0.737 0.430 0.312 0.256 0.206 0.160 0.122 0.095 0.088 0.088 0.088 0.088 0.088 0.088 0.088 0.088 0.088 0.088 0.088 0.088 0.098 0.123 0.156 0.195 0.237 0.282 0.328 0.377 0.427 0.476 4.000 4.000 4.000 4.000 4.000 4.000 4.000 4.000 4.000 4.000 4.000 4.000 4.000 4.000 4.000 4.000 4.000 4.000 4.000 4.000 4.000 4.000 0.734 0.701 0.664 0.632 0.615 0.605 0.600 0.599 0.602 0.611 0.624 0.639 0.658 4.000 4.000 4.000 4.000 4.000 4.000 4.000 4.000 4.000 4.000 4.000 4.000 4.000 4.000 0.586 0.539 0.492 0.447 0.402 0.362 0.325 0.291 0.261 0.242 0.236 0.236 0.237 0.249 0.271 0.297 0.328 0.362 0.400 0.439 0.479 0.520 0.561 4.000 4.000 4.000 4.000 4.000 4.000 4.000 4.000 4.000 4.000 4.000 4.000 0.945 0.969 4.000 4.000 4.000 4.000 4.000 4.000 4.000 4.000 4.000 4.000 4.000 4.000 4.000 4.000 4.000 4.000 4.000 4.000 4.000 4.000 4.000 4.000 0.750 0.729 0.711 0.695 0.683 0.673 0.665 4.000 4.000 4.000 4.000 4.000 4.000 4.000 4.000 4.000 4.000 4.000 4.000 4.000 4.000 4.000 4.000 4.000 4.000 4.000 4.000 4.000 4.000 4.000 4.000 4.000 4.000
4.000 4.000 4.000 4.000 4.000 4.000 1.614 1.142 0.737 0.430 0.312 0.256 0.206 0.160 0.122 0.095 0.088 0.088 0.088 0.088 0.088 0.088 0.088 0.088 0.088 0.088 0.088 0.088 0.093 0.114 0.144 0.179 0.219 0.261 0.305 0.351 0.397 0.443 0.489 4.000 4.000 4.000 4.000 4.000 4.000 4.000 4.000 4.000 4.000 4.000 4.000 4.000 4.000 4.000 4.000 4.000 4.000 4.000 4.000 0.710 0.679 0.647 0.614 0.581 0.564 0.555 0.552 0.551 0.555 0.565 0.579 0.595 0.616 4.000 4.000 4.000 4.000 4.000 4.000 4.000 4.000 4.000 4.000 4.000 4.000 4.000 4.000 0.567 0.522 0.478 0.434 0.392 0.354 0.319 0.285 0.258 0.240 0.236 0.236 0.239 0.254 0.277 0.304 0.338 0.373 0.412 0.453 0.494 0.536 0.580 4.000 4.000 4.000 4.000 4.000 4.000 4.000 4.000 4.000 4.000 4.000 4.000 4.000 0.986 4.000 4.000 4.000 4.000 4.000 4.000 4.000 4.000 4.000 4.000 4.000 4.000 4.000 4.000 4.000 4.000 4.000 4.000 4.000 4.000 4.000 4.000 0.728 0.704 0.682 0.664 0.649 0.636 0.625 0.616 4.000 4.000 4.000 4.000 4.000 4.000 4.000 4.000 4.000 4.000 4.000 4.000 4.000 4.000 4.000 4.000 4.000 4.000 4.000 4.000 4.000 4.000 4.000 4.000 4.000
4.000 4.000 4.000 4.000 4.000 4.000 1.614 1.142 0.737 0.430 0.312 0.256 0.206 0.160 0.122 0.095 0.088 0.088 0.088 0.088 0.088 0.088 0.088 0.088 0.088 0.088 0.088 0.088 0.090 0.106 0.131 0.163 0.200 0.239 0.281 0.324 0.367 0.410 0.452 4.000 4.000 4.000 4.000 4.000 4.000 4.000 4.000 4.000 4.000 4.000 4.000 4.000 4.000 4.000 4.000 4.000 4.000 4.000 0.684 0.654 0.625 0.594 0.563 0.532 0.514 0.504 0.502 0.502 0.507 0.518 0.533 0.551 0.572 0.597 4.000 4.000 4.000 4.000 4.000 4.000 4.000 4.000 4.000 4.000 4.000 4.000 0.586 0.544 0.501 0.460 0.419 0.381 0.343 0.309 0.278 0.254 0.239 0.236 0.236 0.240 0.257 0.280 0.310 0.344 0.381 0.420 0.461 0.504 0.549 4.000 4.000 4.000 4.000 4.000 4.000 4.000 4.000 4.000 4.000 4.000 4.000 4.000 4.000 1.000 4.000 4.000 4.000 4.000 4.000 4.000 4.000 4.000 4.000 4.000 4.000 4.000 4.000 4.000 4.000 4.000 4.000 4.000 4.000 4.000 4.000 4.000 4.000 0.674 0.650 0.630 0.612 0.595 0.580 0.569 0.562 4.000 4.000 4.000 4.000 4.000 4.000 4.000 4.000 4.000 4.000 4.000 4.000 4.000 4.000 4.000 4.000 4.000 4.000 4.000 4.000 4.000 4.000 4.000 4.000
4.000 4.000 4.000 4.000 4.000 4.000 1.614 1.142 0.737 0.430 0.312 0.256 0.206 0.160 0.122 0.095 0.088 0.088 0.088 0.088 0.088 0.088 0.088 0.088 0.088 0.088 0.088 0.088 0.088 0.098 0.121 0.149 0.181 0.216 0.255 0.295 0.335 0.374 0.414 0.452 4.000 4.000 4.000 4.000 4.000 4.000 4.000 4.000 4.000 4.000 4.000 4.000 4.000 4.000 4.000 4.000 0.536 0.657 0.628 0.600 0.571 0.543 0.512 0.482 0.463 0.454 0.451 0.453 0.460 0.471 0.487 0.506 0.529 0.558 4.000 4.000 4.000 4.000 4.000 4.000 4.000 4.000 4.000 4.000 4.000 4.000 0.557 0.518 0.479 0.440 0.402 0.365 0.330 0.299 0.271 0.249 0.237 0.236 0.236 0.242 0.258 0.283 0.314 0.348 0.386 0.424 0.466 0.511 0.555 4.000 4.000 4.000 4.000 4.000 4.000 4.000 4.000 4.000 4.000 4.000 4.000 4.000 4.000 1.009 4.000 4.000 4.000 4.000 4.000 4.000 4.000 4.000 4.000 4.000 4.000 4.000 4.000 4.000 4.000 4.000 4.000 4.000 4.000 4.000 4.000 4.000 4.000 0.639 0.613 0.591 0.570 0.551 0.535 0.521 0.512 0.512 4.000 4.000 4.000 4.000 4.000 4.000 4.000 4.000 4.000 4.000 4.000 4.000 4.000 4.000 4.000 4.000 4.000 4.000 4.000 4.000 4.000 4.000 4.000
4.000 4.000 4.000 4.000 4.000 4.000 1.614 1.142 0.737 0.430 0.312 0.256 0.206 0.160 0.122 0.095 0.088 0.088 0.088 0.088 0.088 0.088 0.088 0.088 0.088 0.088 0.088 0.088 0.088 0.092 0.109 0.135 0.164 0.196 0.231 0.267 0.304 0.340 0.377 0.413 0.446 4.000 4.000 4.000 4.000 4.000 4.000 4.000 4.000 4.000 4.000 4.000 4.000 4.000 0.525 0.503 0.627 0.602 0.574 0.546 0.519 0.492 0.463 0.434 0.413 0.404 0.401 0.403 0.411 0.425 0.442 0.464 0.491 0.523 0.557 4.000 4.000 4.000 4.000 4.000 4.000 4.000 4.000 4.000 4.000 0.558 0.525 0.490 0.453 0.417 0.382 0.348 0.316 0.288 0.263 0.244 0.236 0.236 0.236 0.242 0.259 0.285 0.315 0.350 0.386 0.426 0.467 0.511 0.555 4.000 4.000 4.000 4.000 4.000 4.000 4.000 4.000 4.000 4.000 4.000 4.000 4.000 4.000 1.012 4.000 4.000 4.000 4.000 4.000 4.000 4.000 4.000 4.000 4.000 4.000 4.000 4.000 4.000 4.000 4.000 4.000 4.000 4.000 4.000 4.000 4.000 4.000 0.600 0.573 0.548 0.526 0.505 0.487 0.473 0.463 0.466 0.482 0.512 4.000 4.000 4.000 4.000 4.000 4.000 4.000 4.000 4.000 4.000 4.000 4.000 4.000 4.000 4.000 4.000 4.000 4.000 4.000 4.000 4.000
4.000 4.000 4.000 4.000 4.000 4.000 1.614 1.142 0.737 0.430 0.312 0.256 0.206 0.160 0.122 0.095 0.088 0.088 0.088 0.088 0.088 0.088 0.088 0.088 0.088 0.088 0.088 0.088 0.088 0.089 0.100 0.120 0.146 0.176 0.208 0.240 0.274 0.307 0.340 0.373 0.403 0.431 0.457 4.000 4.000 4.000 4.000 4.000 4.000 4.000 0.534 0.522 0.507 0.489 0.468 0.446 0.572 0.548 0.522 0.495 0.468 0.443 0.417 0.389 0.366 0.356 0.353 0.355 0.364 0.380 0.400 0.427 0.460 0.492 0.522 0.550 0.574 4.000 4.000 4.000 4.000 4.000 4.000 0.574 0.550 0.522 0.492 0.460 0.426 0.394 0.362 0.331 0.302 0.276 0.255 0.240 0.236 0.236 0.236 0.242 0.258 0.283 0.314 0.347 0.383 0.423 0.465 0.506 0.549 4.000 4.000 4.000 4.000 4.000 4.000 4.000 4.000 4.000 4.000 4.000 4.000 4.000 4.000 1.009 4.000 4.000 4.000 4.000 4.000 4.000 4.000 4.000 4.000 4.000 4.000 4.000 4.000 4.000 4.000 4.000 4.000 4.000 4.000 4.000 4.000 4.000 4.000 0.563 0.532 0.505 0.481 0.459 0.441 0.425 0.416 0.420 0.433 0.462 0.496 0.530 0.564 0.595 0.625 0.653 4.000 4.000 4.000 4.000 4.000 4.000 4.000 4.000 4.000 4.000 4.000 4.000 4.000 4.000 4.000
4.000 4.000 4.000 4.000 4.000 4.000 1.614 1.142 0.737 0.430 0.312 0.256 0.206 0.160 0.122 0.095 0.088 0.088 0.088 0.088 0.088 0.088 0.088 0.088 0.088 0.088 0.088 0.088 0.088 0.088 0.092 0.108 0.129 0.155 0.184 0.213 0.243 0.274 0.304 0.333 0.361 0.385 0.408 0.430 0.450 0.464 0.475 0.482 0.484 0.482 0.476 0.464 0.449 0.432 0.413 0.540 0.517 0.495 0.471 0.446 0.422 0.397 0.372 0.346 0.324 0.311 0.309 0.311 0.324 0.343 0.370 0.399 0.430 0.458 0.485 0.511 0.533 0.549 0.562 0.568 0.568 0.562 0.549 0.533 0.511 0.485 0.458 0.430 0.399 0.370 0.341 0.314 0.288 0.266 0.248 0.237 0.236 0.236 0.236 0.240 0.257 0.280 0.310 0.342 0.378 0.416 0.456 0.497 0.539 4.000 4.000 4.000 4.000 4.000 4.000 4.000 4.000 4.000 4.000 4.000 4.000 4.000 0.977 0.997 4.000 4.000 4.000 4.000 4.000 4.000 4.000 4.000 4.000 4.000 4.000 4.000 4.000 4.000 4.000 4.000 4.000 4.000 4.000 4.000 4.000 4.000 4.000 0.522 0.491 0.462 0.436 0.413 0.393 0.377 0.370 0.373 0.384 0.411 0.443 0.477 0.509 0.539 0.568 0.597 0.629 4.000 4.000 4.000 4.000 4.000 4.000 4.000 4.000 4.000 4.000 4.000 4.000 4.000 4.000
4.000 4.000 4.000 4.000 4.000 4.000 1.614 1.142 0.737 0.430 0.312 0.256 0.206 0.160 0.122 0.095 0.088 0.088 0.088 0.088 0.088 0.088 0.088 0.088 0.088 0.088 0.088 0.088 0.088 0.088 0.089 0.098 0.115 0.135 0.160 0.186 0.213 0.240 0.267 0.294 0.318 0.340 0.362 0.381 0.399 0.410 0.420 0.426 0.426 0.424 0.418 0.407 0.394 0.377 0.358 0.487 0.467 0.444 0.422 0.399 0.377 0.355 0.332 0.309 0.289 0.273 0.271 0.278 0.297 0.321 0.346 0.373 0.399 0.426 0.449 0.472 0.492 0.507 0.517 0.523 0.523 0.517 0.507 0.492 0.472 0.449 0.426 0.399 0.373 0.346 0.321 0.296 0.273 0.255 0.240 0.236 0.236 0.236 0.236 0.239 0.254 0.277 0.304 0.335 0.370 0.406 0.444 0.483 0.523 0.561 4.000 4.000 4.000 4.000 4.000 4.000 4.000 4.000 4.000 4.000 4.000 4.000 0.956 0.977 4.000 4.000 4.000 4.000 4.000 4.000 4.000 4.000 4.000 4.000 4.000 4.000 4.000 4.000 4.000 4.000 4.000 4.000 4.000 4.000 4.000 4.000 4.000 0.483 0.449 0.420 0.392 0.368 0.348 0.334 0.325 0.324 0.335 0.361 0.392 0.424 0.455 0.483 0.511 0.542 0.576 4.000 4.000 4.000 4.000 4.000 4.000 4.000 4.000 4.000 4.000 4.000 4.000 4.000 4.000
4.000 4.000 4.000 4.000 4.000 4.000 1.614 1.142 0.737 0.430 0.312 0.256 0.206 0.160 0.122 0.095 0.088 0.088 0.088 0.088 0.088 0.088 0.088 0.088 0.088 0.088 0.088 0.088 0.088 0.088 0.088 0.090 0.102 0.119 0.140 0.162 0.185 0.209 0.233 0.257 0.280 0.299 0.317 0.333 0.348 0.358 0.367 0.371 0.371 0.368 0.362 0.353 0.341 0.326 0.456 0.437 0.418 0.398 0.377 0.355 0.336 0.316 0.296 0.277 0.259 0.245 0.246 0.260 0.279 0.301 0.323 0.346 0.370 0.394 0.414 0.434 0.451 0.466 0.474 0.479 0.479 0.474 0.466 0.451 0.434 0.414 0.394 0.370 0.346 0.323 0.301 0.279 0.260 0.245 0.237 0.236 0.236 0.236 0.236 0.237 0.249 0.271 0.297 0.325 0.358 0.393 0.429 0.466 0.503 0.538 4.000 4.000 4.000 4.000 4.000 4.000 4.000 4.000 4.000 4.000 4.000 0.902 0.927 0.951 4.000 4.000 4.000 4.000 4.000 4.000 4.000 4.000 4.000 4.000 4.000 4.000 4.000 4.000 4.000 4.000 4.000 4.000 4.000 4.000 4.000 4.000 4.000 0.446 0.408 0.377 0.350 0.326 0.306 0.290 0.278 0.275 0.287 0.312 0.342 0.373 0.403 0.433 0.461 0.494 0.531 0.568 4.000 4.000 4.000 4.000 4.000 4.000 4.000 4.000 4.000 4.000 4.000 4.000 4.000
4.000 4.000 4.000 4.000 4.000 4.000 1.614 1.142 0.737 0.430 0.312 0.256 0.206 0.160 0.122 0.095 0.088 0.088 0.088 0.088 0.088 0.088 0.088 0.088 0.088 0.088 0.088 0.088 0.088 0.088 0.088 0.088 0.092 0.104 0.121 0.140 0.160 0.180 0.201 0.222 0.242 0.259 0.274 0.287 0.299 0.310 0.315 0.319 0.319 0.315 0.309 0.301 0.290 0.276 0.260 0.244 0.374 0.355 0.336 0.317 0.301 0.283 0.266 0.251 0.240 0.236 0.238 0.248 0.263 0.281 0.301 0.321 0.341 0.362 0.380 0.397 0.413 0.424 0.433 0.435 0.435 0.433 0.424 0.413 0.397 0.380 0.362 0.341 0.321 0.301 0.281 0.263 0.248 0.238 0.236 0.236 0.236 0.236 0.236 0.236 0.244 0.263 0.288 0.314 0.345 0.377 0.411 0.446 0.480 0.512 0.544 4.000 4.000 4.000 4.000 4.000 4.000 4.000 4.000 4.000 0.839 0.865 0.892 0.919 0.945 4.000 4.000 4.000 4.000 4.000 4.000 4.000 4.000 4.000 4.000 4.000 4.000 4.000 4.000 4.000 4.000 4.000 4.000 4.000 4.000 4.000 0.466 0.417 0.374 0.339 0.311 0.287 0.266 0.248 0.234 0.229 0.242 0.271 0.303 0.336 0.367 0.396 0.426 0.464 0.505 0.547 0.591 0.632 4.000 4.000 4.000 4.000 4.000 4.000 4.000 4.000 4.000 4.000 4.000
4.000 4.000 4.000 4.000 4.000 4.000 1.614 1.142 0.737 0.430 0.312 0.256 0.206 0.160 0.122 0.095 0.088 0.088 0.088 0.088 0.088 0.088 0.088 0.088 0.088 0.088 0.088 0.088 0.088 0.088 0.088 0.088 0.088 0.093 0.104 0.119 0.135 0.153 0.170 0.188 0.204 0.220 0.233 0.244 0.254 0.262 0.267 0.269 0.269 0.266 0.259 0.253 0.242 0.230 0.216 0.201 0.334 0.317 0.301 0.286 0.272 0.258 0.246 0.238 0.236 0.236 0.236 0.240 0.249 0.263 0.279 0.296 0.314 0.331 0.348 0.362 0.374 0.384 0.391 0.396 0.396 0.391 0.384 0.374 0.362 0.348 0.331 0.314 0.296 0.279 0.263 0.249 0.240 0.236 0.236 0.236 0.236 0.236 0.236 0.236 0.240 0.255 0.276 0.302 0.330 0.360 0.390 0.422 0.454 0.484 0.512 0.538 0.561 4.000 4.000 4.000 4.000 4.000 0.734 0.767 0.796 0.825 0.853 0.881 0.909 4.000 4.000 4.000 4.000 4.000 4.000 4.000 4.000 4.000 4.000 4.000 4.000 4.000 4.000 4.000 4.000 4.000 4.000 4.000 4.000 4.000 0.440 0.394 0.349 0.308 0.276 0.251 0.228 0.211 0.200 0.199 0.216 0.247 0.279 0.312 0.343 0.374 0.405 0.445 0.488 0.535 0.581 0.624 0.665 0.767 1.055 1.439 4.000 4.000 4.000 4.000 4.000 4.000 4.000
4.000 4.000 4.000 4.000 4.000 4.000 1.614 1.142 0.737 0.430 0.312 0.256 0.206 0.160 0.122 0.095 0.088 0.088 0.088 0.088 0.088 0.088 0.088 0.088 0.088 0.088 0.088 0.088 0.088 0.088 0.088 0.088 0.088 0.088 0.092 0.102 0.115 0.129 0.143 0.157 0.171 0.185 0.196 0.205 0.212 0.218 0.223 0.224 0.223 0.219 0.215 0.207 0.197 0.187 0.175 0.163 0.298 0.284 0.272 0.261 0.250 0.240 0.237 0.236 0.236 0.236 0.236 0.236 0.240 0.248 0.260 0.273 0.288 0.302 0.316 0.328 0.338 0.347 0.354 0.357 0.357 0.354 0.347 0.338 0.328 0.316 0.302 0.288 0.273 0.260 0.248 0.240 0.236 0.236 0.236 0.236 0.236 0.236 0.236 0.236 0.237 0.248 0.266 0.288 0.314 0.341 0.370 0.399 0.427 0.454 0.480 0.503 0.523 0.539 0.553 0.582 0.616 0.652 0.685 0.719 0.750 0.779 0.809 0.838 4.000 4.000 4.000 4.000 4.000 4.000 4.000 4.000 4.000 4.000 4.000 4.000 4.000 4.000 4.000 4.000 4.000 4.000 4.000 4.000 4.000 0.458 0.413 0.370 0.328 0.288 0.252 0.227 0.208 0.195 0.189 0.191 0.207 0.239 0.270 0.302 0.331 0.359 0.392 0.436 0.483 0.530 0.575 0.619 0.663 0.764 1.052 1.436 4.000 4.000 4.000 4.000 4.000 4.000 4.000
4.000 4.000 4.000 4.000 4.000 4.000 1.614 1.142 0.737 0.430 0.312 0.256 0.206 0.160 0.122 0.095 0.088 0.088 0.088 0.088 0.088 0.088 0.088 0.088 0.088 0.088 0.088 0.088 0.088 0.088 0.088 0.088 0.088 0.088 0.088 0.090 0.098 0.108 0.119 0.130 0.141 0.152 0.161 0.169 0.174 0.178 0.181 0.182 0.181 0.178 0.173 0.166 0.158 0.149 0.139 0.129 0.267 0.257 0.249 0.241 0.237 0.236 0.236 0.236 0.236 0.236 0.236 0.236 0.236 0.238 0.245 0.255 0.266 0.276 0.288 0.299 0.307 0.314 0.319 0.321 0.321 0.319 0.314 0.307 0.299 0.288 0.276 0.266 0.255 0.245 0.238 0.236 0.236 0.236 0.236 0.236 0.236 0.236 0.236 0.236 0.236 0.240 0.255 0.273 0.296 0.321 0.346 0.373 0.399 0.422 0.446 0.466 0.483 0.497 0.511 0.536 0.569 0.602 0.637 0.670 0.700 0.730 0.762 0.791 4.000 4.000 4.000 4.000 4.000 4.000 4.000 4.000 4.000 4.000 4.000 4.000 4.000 4.000 4.000 4.000 4.000 4.000 4.000 4.000 0.470 0.426 0.384 0.348 0.315 0.283 0.252 0.226 0.208 0.197 0.195 0.199 0.214 0.239 0.268 0.300 0.329 0.355 0.387 0.434 0.483 0.530 0.575 0.619 0.664 0.767 1.055 1.438 4.000 4.000 4.000 4.000 4.000 4.000 4.000
4.000 4.000 4.000 4.000 4.000 4.000 1.614 1.142 0.737 0.430 0.312 0.256 0.206 0.160 0.122 0.095 0.088 0.088 0.088 0.088 0.088 0.088 0.088 0.088 0.088 0.088 0.088 0.088 0.088 0.088 0.088 0.088 0.088 0.088 0.088 0.088 0.089 0.092 0.100 0.107 0.115 0.123 0.130 0.137 0.142 0.144 0.144 0.144 0.144 0.142 0.137 0.131 0.124 0.118 0.110 0.251 0.244 0.240 0.237 0.236 0.236 0.236 0.236 0.236 0.236 0.236 0.236 0.236 0.236 0.236 0.237 0.240 0.248 0.255 0.263 0.271 0.278 0.283 0.287 0.289 0.289 0.287 0.283 0.278 0.271 0.263 0.255 0.248 0.240 0.237 0.236 0.236 0.236 0.236 0.236 0.236 0.236 0.236 0.236 0.236 0.236 0.237 0.245 0.260 0.279 0.301 0.323 0.346 0.370 0.390 0.411 0.429 0.444 0.456 0.471 0.490 0.520 0.553 0.587 0.618 0.649 0.680 0.712 0.740 4.000 4.000 4.000 4.000 4.000 4.000 4.000 4.000 4.000 4.000 4.000 4.000 4.000 4.000 4.000 4.000 4.000 4.000 4.000 0.481 0.439 0.400 0.368 0.341 0.315 0.289 0.265 0.245 0.228 0.217 0.213 0.219 0.236 0.254 0.278 0.305 0.334 0.361 0.392 0.439 0.487 0.535 0.581 0.626 0.670 0.775 1.062 1.442 4.000 4.000 4.000 4.000 4.000 4.000 4.000
4.000 4.000 4.000 4.000 4.000 4.000 1.614 1.142 0.737 0.430 0.312 0.256 0.206 0.160 0.122 0.095 0.088 0.088 0.088 0.088 0.088 0.088 0.088 0.088 0.088 0.088 0.088 0.088 0.088 0.088 0.088 0.088 0.088 0.088 0.088 0.088 0.088 0.088 0.089 0.092 0.096 0.101 0.106 0.110 0.113 0.116 0.117 0.116 0.113 0.110 0.107 0.103 0.099 0.095 0.239 0.237 0.236 0.236 0.236 0.236 0.236 0.236 0.236 0.236 0.236 0.236 0.236 0.236 0.236 0.236 0.236 0.236 0.237 0.240 0.244 0.249 0.254 0.258 0.261 0.262 0.262 0.261 0.258 0.254 0.249 0.244 0.240 0.237 0.236 0.236 0.236 0.236 0.236 0.236 0.236 0.236 0.236 0.236 0.236 0.236 0.236 0.236 0.238 0.248 0.263 0.281 0.301 0.321 0.341 0.360 0.377 0.393 0.406 0.416 0.429 0.448 0.473 0.505 0.536 0.567 0.598 0.629 0.659 0.688 4.000 4.000 4.000 4.000 4.000 4.000 4.000 4.000 4.000 4.000 4.000 4.000 4.000 4.000 4.000 4.000 4.000 0.528 0.490 0.454 0.421 0.389 0.364 0.342 0.321 0.302 0.285 0.269 0.258 0.252 0.250 0.259 0.272 0.287 0.303 0.323 0.349 0.374 0.405 0.451 0.499 0.547 0.594 0.639 0.683 0.785 1.072 1.451 4.000 4.000 4.000 4.000 4.000 4.000 4.000
4.000 4.000 4.000 4.000 4.000 4.000 1.614 1.142 0.737 0.430 0.312 0.256 0.206 0.160 0.122 0.095 0.088 0.088 0.088 0.088 0.088 0.088 0.088 0.088 0.088 0.088 0.088 0.088 0.088 0.088 0.088 0.088 0.088 0.088 0.088 0.088 0.088 0.088 0.088 0.088 0.088 0.089 0.091 0.092 0.094 0.094 0.095 0.094 0.094 0.092 0.091 0.089 0.088 0.088 0.236 0.236 0.236 0.236 0.236 0.236 0.236 0.236 0.236 0.236 0.236 0.236 0.236 0.236 0.236 0.236 0.236 0.236 0.236 0.236 0.236 0.237 0.239 0.240 0.242 0.242 0.242 0.242 0.240 0.239 0.237 0.236 0.236 0.236 0.236 0.236 0.236 0.236 0.236 0.236 0.236 0.236 0.236 0.236 0.236 0.236 0.236 0.236 0.236 0.240 0.249 0.263 0.279 0.296 0.314 0.330 0.345 0.358 0.370 0.378 0.387 0.407 0.430 0.458 0.486 0.515 0.546 0.577 0.606 0.634 4.000 4.000 4.000 4.000 4.000 4.000 4.000 4.000 4.000 4.000 4.000 4.000 4.000 0.627 0.594 0.559 0.526 0.496 0.466 0.438 0.411 0.386 0.366 0.350 0.335 0.321 0.308 0.298 0.293 0.291 0.297 0.312 0.324 0.337 0.350 0.365 0.383 0.404 0.433 0.476 0.522 0.568 0.614 0.657 0.699 0.799 1.084 1.461 4.000 4.000 4.000 4.000 4.000 4.000 4.000
4.000 4.000 4.000 4.000 4.000 4.000 1.614 1.142 0.737 0.430 0.312 0.256 0.206 0.160 0.122 0.095 0.088 0.088 0.088 0.088 0.088 0.088 0.088 0.088 0.088 0.088 0.088 0.088 0.088 0.088 0.088 0.088 0.088 0.088 0.088 0.088 0.088 0.088 0.088 0.088 0.088 0.088 0.088 0.088 0.088 0.088 0.088 0.088 0.088 0.088 0.088 0.088 0.088 0.088 0.236 0.236 0.236 0.236 0.236 0.236 0.236 0.236 0.236 0.236 0.236 0.236 0.236 0.236 0.236 0.236 0.236 0.236 0.236 0.236 0.236 0.236 0.236 0.236 0.236 0.236 0.236 0.236 0.236 0.236 0.236 0.236 0.236 0.236 0.236 0.236 0.236 0.236 0.236 0.236 0.236 0.236 0.236 0.236 0.236 0.236 0.236 0.236 0.236 0.236 0.240 0.248 0.260 0.273 0.288 0.302 0.314 0.325 0.335 0.342 0.350 0.367 0.389 0.412 0.438 0.467 0.497 0.526 0.554 0.582 0.608 4.000 4.000 4.000 4.000 4.000 4.000 4.000 4.000 4.000 4.000 4.000 0.596 0.571 0.543 0.517 0.494 0.471 0.447 0.427 0.406 0.387 0.373 0.363 0.352 0.345 0.337 0.332 0.331 0.337 0.351 0.367 0.381 0.394 0.406 0.419 0.431 0.448 0.473 0.510 0.551 0.594 0.637 0.679 0.718 0.815 1.097 1.473 4.000 4.000 4.000 4.000 4.000 4.000 4.000
4.000 4.000 4.000 4.000 4.000 4.000 1.614 1.142 0.737 0.430 0.312 0.256 0.206 0.160 0.122 0.095 0.088 0.088 0.088 0.088 0.088 0.088 0.088 0.088 0.088 0.088 0.088 0.088 0.088 0.088 0.088 0.088 0.088 0.088 0.088 0.088 0.088 0.088 0.088 0.088 0.088 0.088 0.088 0.088 0.088 0.088 0.088 0.088 0.088 0.088 0.088 0.088 0.088 0.088 0.236 0.236 0.236 0.236 0.236 0.236 0.236 0.236 0.236 0.236 0.236 0.236 0.236 0.236 0.236 0.236 0.236 0.236 0.236 0.236 0.236 0.236 0.236 0.236 0.236 0.236 0.236 0.236 0.236 0.236 0.236 0.236 0.236 0.236 0.236 0.236 0.236 0.236 0.236 0.236 0.236 0.236 0.236 0.236 0.236 0.236 0.236 0.236 0.236 0.236 0.236 0.238 0.245 0.255 0.266 0.276 0.288 0.297 0.304 0.310 0.315 0.328 0.349 0.371 0.393 0.420 0.449 0.476 0.504 0.532 0.558 4.000 4.000 4.000 4.000 4.000 4.000 4.000 4.000 4.000 4.000 4.000 0.538 0.518 0.501 0.483 0.467 0.449 0.433 0.419 0.404 0.392 0.383 0.378 0.375 0.372 0.369 0.370 0.375 0.390 0.408 0.424 0.440 0.453 0.466 0.478 0.490 0.500 0.518 0.550 0.585 0.623 0.663 0.702 0.738 0.833 1.114 1.487 4.000 4.000 4.000 4.000 4.000 4.000 4.000
4.000 4.000 4.000 4.000 4.000 4.000 1.614 1.142 0.737 0.430 0.312 0.256 0.206 0.160 0.122 0.095 0.088 0.088 0.088 0.088 0.088 0.088 0.088 0.088 0.088 0.088 0.088 0.088 0.088 0.088 0.088 0.088 0.088 0.088 0.088 0.088 0.088 0.088 0.088 0.088 0.088 0.088 0.088 0.088 0.088 0.088 0.088 0.088 0.088 0.088 0.088 0.088 0.088 0.088 0.236 0.236 0.236 0.236 0.236 0.236 0.236 0.236 0.236 0.236 0.236 0.236 0.236 0.236 0.236 0.236 0.236 0.236 0.236 0.236 0.236 0.236 0.236 0.236 0.236 0.236 0.236 0.236 0.236 0.236 0.236 0.236 0.236 0.236 0.236 0.236 0.236 0.236 0.236 0.236 0.236 0.236 0.236 0.236 0.236 0.236 0.236 0.236 0.236 0.236 0.236 0.236 0.237 0.240 0.248 0.255 0.263 0.271 0.277 0.280 0.284 0.293 0.311 0.332 0.355 0.380 0.404 0.431 0.459 0.486 0.516 0.547 4.000 4.000 4.000 4.000 4.000 4.000 4.000 4.000 4.000 0.500 0.486 0.476 0.466 0.457 0.447 0.435 0.423 0.412 0.404 0.398 0.396 0.398 0.400 0.402 0.406 0.414 0.429 0.448 0.467 0.483 0.499 0.514 0.527 0.539 0.552 4.000 4.000 4.000 4.000 4.000 4.000 4.000 4.000 4.000 4.000 4.000 4.000 4.000 4.000 4.000 4.000 4.000 4.000
4.000 4.000 4.000 4.000 4.000 4.000 1.614 1.142 0.737 0.430 0.312 0.256 0.206 0.160 0.122 0.095 0.088 0.088 0.088 0.088 0.088 0.088 0.088 0.088 0.088 0.088 0.088 0.088 0.088 0.088 0.088 0.088 0.088 0.088 0.088 0.088 0.088 0.088 0.088 0.088 0.088 0.088 0.088 0.088 0.088 0.088 0.088 0.088 0.088 0.088 0.088 0.088 0.088 0.236 0.236 0.236 0.236 0.236 0.236 0.236 0.236 0.236 0.236 0.236 0.236 0.236 0.236 0.236 0.236 0.236 0.236 0.236 0.236 0.236 0.236 0.236 0.236 0.236 0.236 0.236 0.236 0.236 0.236 0.236 0.236 0.236 0.236 0.236 0.236 0.236 0.236 0.236 0.236 0.236 0.236 0.236 0.236 0.236 0.236 0.236 0.236 0.236 0.236 0.236 0.236 0.236 0.236 0.236 0.237 0.240 0.244 0.249 0.254 0.257 0.258 0.262 0.278 0.298 0.320 0.344 0.368 0.394 0.423 0.454 0.484 0.512 0.538 0.558 4.000 4.000 4.000 4.000 4.000 0.463 0.457 0.451 0.449 0.447 0.444 0.440 0.434 0.428 0.423 0.417 0.411 0.409 0.413 0.422 0.430 0.438 0.449 0.465 0.487 0.507 0.526 0.544 0.560 0.576 4.000 4.000 4.000 4.000 4.000 4.000 4.000 4.000 4.000 4.000 4.000 4.000 4.000 4.000 4.000 4.000 4.000 4.000 4.000 4.000 4.000
4.000 4.000 4.000 4.000 4.000 4.000 1.614 1.142 0.737 0.430 0.312 0.256 0.206 0.160 0.122 0.095 0.088 0.088 0.088 0.088 0.088 0.088 0.088 0.088 0.088 0.088 0.088 0.088 0.088 0.088 0.088 0.088 0.088 0.088 0.088 0.088 0.088 0.088 0.088 0.088 0.088 0.088 0.088 0.088 0.088 0.088 0.088 0.088 0.088 0.088 0.088 0.088 0.088 0.236 0.236 0.236 0.236 0.236 0.236 0.236 0.236 0.236 0.236 0.236 0.236 0.236 0.236 0.236 0.236 0.236 0.236 0.236 0.236 0.236 0.236 0.236 0.236 0.236 0.236 0.236 0.236 0.236 0.236 0.236 0.236 0.236 0.236 0.236 0.236 0.236 0.236 0.236 0.236 0.236 0.236 0.236 0.236 0.236 0.236 0.236 0.236 0.236 0.236 0.236 0.236 0.236 0.236 0.236 0.236 0.236 0.236 0.237 0.239 0.240 0.242 0.243 0.253 0.270 0.290 0.315 0.341 0.370 0.399 0.427 0.454 0.480 0.503 0.521 0.536 0.546 0.554 0.559 0.561 0.413 0.414 0.420 0.424 0.428 0.430 0.430 0.430 0.428 0.425 0.424 0.424 0.428 0.438 0.450 0.463 0.480 0.500 0.523 0.546 0.567 4.000 4.000 4.000 4.000 4.000 4.000 4.000 4.000 4.000 4.000 4.000 4.000 4.000 4.000 4.000 4.000 4.000 4.000 4.000 4.000 4.000 4.000 4.000 4.000 4.000
4.000 4.000 4.000 4.000 4.000 4.000 1.614 1.142 0.737 0.430 0.312 0.256 0.206 0.160 0.122 0.095 0.088 0.088 0.088 0.088 0.088 0.088 0.088 0.088 0.088 0.088 0.088 0.088 0.088 0.088 0.088 0.088 0.088 0.088 0.088 0.088 0.088 0.088 0.088 0.088 0.088 0.088 0.088 0.088 0.088 0.088 0.088 0.088 0.088 0.088 0.088 0.088 0.088 0.236 0.236 0.236 0.236 0.237 0.239 0.240 0.242 0.242 0.243 0.242 0.242 0.240 0.239 0.237 0.236 0.236 0.236 0.236 0.236 0.236 0.236 0.236 0.236 0.236 0.236 0.236 0.236 0.236 0.236 0.236 0.236 0.236 0.236 0.236 0.236 0.236 0.236 0.236 0.236 0.236 0.236 0.236 0.236 0.236 0.236 0.236 0.236 0.236 0.236 0.236 0.236 0.236 0.236 0.236 0.236 0.236 0.236 0.236 0.236 0.236 0.236 0.236 0.240 0.255 0.273 0.296 0.321 0.346 0.373 0.399 0.422 0.446 0.466 0.483 0.494 0.503 0.508 0.512 0.517 0.377 0.386 0.397 0.406 0.415 0.421 0.426 0.430 0.432 0.435 0.438 0.441 0.454 0.471 0.486 0.505 0.531 0.558 4.000 4.000 4.000 4.000 4.000 4.000 4.000 4.000 4.000 4.000 4.000 4.000 4.000 4.000 4.000 4.000 4.000 4.000 4.000 4.000 4.000 4.000 4.000 4.000 4.000 4.000 4.000 4.000
4.000 4.000 4.000 4.000 4.000 4.000 1.614 1.142 0.737 0.430 0.312 0.256 0.206 0.160 0.122 0.095 0.088 0.088 0.088 0.088 0.088 0.088 0.088 0.088 0.088 0.088 0.088 0.088 0.088 0.088 0.088 0.088 0.088 0.088 0.088 0.088 0.088 0.088 0.088 0.088 0.088 0.088 0.088 0.088 0.088 0.088 0.088 0.088 0.088 0.088 0.088 0.088 0.088 0.236 0.237 0.240 0.244 0.249 0.254 0.258 0.261 0.264 0.265 0.264 0.261 0.258 0.255 0.250 0.246 0.241 0.238 0.236 0.236 0.236 0.236 0.236 0.236 0.236 0.236 0.236 0.236 0.236 0.236 0.236 0.236 0.236 0.236 0.236 0.236 0.236 0.236 0.236 0.236 0.236 0.236 0.236 0.236 0.236 0.236 0.236 0.236 0.236 0.236 0.236 0.236 0.236 0.236 0.236 0.236 0.236 0.236 0.236 0.236 0.236 0.236 0.236 0.237 0.245 0.260 0.279 0.301 0.323 0.346 0.370 0.390 0.411 0.429 0.444 0.455 0.461 0.468 0.477 0.488 0.352 0.367 0.382 0.394 0.407 0.418 0.427 0.434 0.442 0.449 0.457 0.468 0.489 0.510 0.533 4.000 4.000 4.000 4.000 4.000 4.000 4.000 4.000 4.000 4.000 4.000 4.000 4.000 4.000 4.000 4.000 4.000 4.000 4.000 4.000 4.000 4.000 4.000 4.000 4.000 4.000 4.000 4.000 4.000 4.000 4.000
4.000 4.000 4.000 4.000 4.000 4.000 1.614 1.142 0.737 0.430 0.312 0.256 0.206 0.160 0.122 0.095 0.088 0.088 0.088 0.088 0.088 0.088 0.088 0.088 0.088 0.088 0.088 0.088 0.088 0.088 0.088 0.088 0.088 0.088 0.088 0.088 0.088 0.088 0.088 0.088 0.088 0.088 0.088 0.088 0.088 0.088 0.088 0.088 0.088 0.088 0.088 0.088 0.089 0.241 0.249 0.257 0.265 0.272 0.279 0.285 0.290 0.292 0.292 0.292 0.292 0.288 0.282 0.275 0.269 0.262 0.254 0.246 0.240 0.237 0.236 0.236 0.236 0.236 0.236 0.236 0.236 0.236 0.236 0.236 0.236 0.236 0.236 0.236 0.236 0.236 0.236 0.236 0.236 0.236 0.236 0.236 0.236 0.236 0.236 0.236 0.236 0.236 0.236 0.236 0.236 0.236 0.236 0.236 0.236 0.236 0.236 0.236 0.236 0.236 0.236 0.236 0.236 0.238 0.248 0.263 0.281 0.301 0.321 0.341 0.360 0.377 0.393 0.406 0.416 0.427 0.441 0.456 0.469 0.337 0.355 0.373 0.390 0.406 0.419 0.432 0.445 0.456 0.468 0.484 0.507 0.534 4.000 4.000 4.000 4.000 4.000 4.000 4.000 4.000 4.000 4.000 4.000 4.000 4.000 4.000 4.000 4.000 4.000 4.000 4.000 4.000 4.000 4.000 4.000 4.000 4.000 4.000 4.000 4.000 4.000 4.000 4.000 4.000 4.000
4.000 4.000 4.000 4.000 4.000 4.000 1.614 1.142 0.737 0.430 0.312 0.256 0.206 0.160 0.122 0.095 0.088 0.088 0.088 0.088 0.088 0.088 0.088 0.088 0.088 0.088 0.088 0.088 0.088 0.088 0.088 0.088 0.088 0.088 0.088 0.088 0.088 0.088 0.088 0.088 0.088 0.088 0.088 0.088 0.088 0.088 0.088 0.088 0.088 0.088 0.089 0.092 0.250 0.261 0.272 0.283 0.293 0.303 0.312 0.319 0.323 0.326 0.329 0.329 0.326 0.323 0.318 0.309 0.300 0.290 0.280 0.270 0.259 0.249 0.241 0.237 0.236 0.236 0.236 0.236 0.236 0.236 0.236 0.236 0.236 0.236 0.236 0.236 0.236 0.236 0.236 0.236 0.236 0.236 0.236 0.236 0.236 0.236 0.236 0.236 0.236 0.236 0.236 0.236 0.236 0.236 0.236 0.236 0.236 0.236 0.236 0.236 0.236 0.236 0.236 0.236 0.236 0.236 0.240 0.249 0.263 0.279 0.296 0.314 0.330 0.345 0.359 0.371 0.387 0.408 0.429 0.447 0.463 0.333 0.352 0.372 0.392 0.411 0.428 0.446 0.462 0.478 0.501 0.528 4.000 4.000 4.000 4.000 4.000 4.000 4.000 4.000 4.000 4.000 4.000 4.000 4.000 4.000 4.000 4.000 4.000 4.000 4.000 4.000 4.000 4.000 4.000 4.000 4.000 4.000 4.000 4.000 4.000 4.000 4.000 4.000 4.000 4.000 4.000
4.000 4.000 4.000 4.000 4.000 4.000 1.614 1.142 0.737 0.430 0.312 0.256 0.206 0.160 0.122 0.095 0.088 0.088 0.088 0.088 0.088 0.088 0.088 0.088 0.088 0.088 0.088 0.088 0.088 0.088 0.088 0.088 0.088 0.088 0.088 0.088 0.088 0.088 0.088 0.088 0.088 0.088 0.088 0.088 0.088 0.088 0.088 0.088 0.088 0.090 0.098 0.110 0.272 0.286 0.300 0.314 0.327 0.339 0.349 0.356 0.363 0.367 0.369 0.369 0.367 0.363 0.356 0.348 0.338 0.327 0.314 0.301 0.287 0.273 0.261 0.250 0.240 0.237 0.236 0.236 0.236 0.236 0.236 0.236 0.236 0.236 0.236 0.236 0.236 0.236 0.236 0.236 0.236 0.236 0.236 0.236 0.236 0.236 0.236 0.236 0.236 0.236 0.236 0.236 0.236 0.236 0.236 0.236 0.236 0.236 0.236 0.236 0.236 0.236 0.236 0.236 0.236 0.236 0.236 0.240 0.248 0.260 0.273 0.288 0.303 0.318 0.333 0.353 0.380 0.406 0.430 0.450 0.470 0.343 0.364 0.386 0.406 0.426 0.447 0.470 0.494 0.519 0.549 4.000 4.000 4.000 4.000 4.000 4.000 4.000 4.000 4.000 4.000 4.000 4.000 4.000 4.000 4.000 4.000 4.000 4.000 4.000 4.000 4.000 4.000 4.000 4.000 4.000 4.000 4.000 4.000 4.000 4.000 4.000 4.000 4.000 4.000 4.000 4.000
4.000 4.000 4.000 4.000 4.000 4.000 1.614 1.142 0.737 0.430 0.312 0.256 0.206 0.160 0.122 0.095 0.088 0.088 0.088 0.088 0.088 0.088 0.088 0.088 0.088 0.088 0.088 0.088 0.088 0.088 0.088 0.088 0.088 0.088 0.088 0.088 0.088 0.088 0.088 0.088 0.088 0.088 0.088 0.088 0.088 0.088 0.088 0.088 0.092 0.102 0.115 0.132 0.298 0.315 0.332 0.349 0.365 0.380 0.390 0.399 0.407 0.412 0.414 0.414 0.412 0.407 0.401 0.393 0.381 0.367 0.353 0.337 0.320 0.302 0.285 0.270 0.257 0.245 0.238 0.236 0.236 0.236 0.236 0.236 0.236 0.236 0.236 0.236 0.236 0.236 0.236 0.236 0.236 0.236 0.236 0.236 0.236 0.236 0.236 0.236 0.236 0.236 0.236 0.236 0.236 0.236 0.236 0.236 0.236 0.236 0.236 0.236 0.236 0.236 0.236 0.236 0.236 0.236 0.236 0.236 0.238 0.245 0.256 0.270 0.288 0.307 0.328 0.355 0.384 0.412 0.438 0.461 0.483 0.359 0.384 0.409 0.430 0.454 0.478 0.506 0.536 0.568 4.000 4.000 4.000 4.000 4.000 4.000 4.000 4.000 4.000 4.000 4.000 4.000 4.000 4.000 4.000 4.000 4.000 4.000 4.000 4.000 4.000 4.000 4.000 4.000 4.000 4.000 4.000 4.000 4.000 4.000 4.000 4.000 4.000 4.000 4.000 4.000 4.000
4.000 4.000 4.000 4.000 4.000 4.000 1.614 1.142 0.737 0.430 0.312 0.256 0.206 0.160 0.122 0.095 0.088 0.088 0.088 0.088 0.088 0.088 0.088 0.088 0.088 0.088 0.088 0.088 0.088 0.088 0.088 0.088 0.088 0.088 0.088 0.088 0.088 0.088 0.088 0.088 0.088 0.088 0.088 0.088 0.088 0.088 0.088 0.093 0.104 0.119 0.138 0.306 0.327 0.347 0.367 0.387 0.406 0.422 0.435 0.446 0.455 0.460 0.463 0.463 0.460 0.457 0.449 0.440 0.427 0.411 0.393 0.374 0.355 0.335 0.314 0.294 0.277 0.260 0.248 0.240 0.236 0.236 0.236 0.236 0.236 0.236 0.236 0.236 0.236 0.236 0.236 0.236 0.236 0.236 0.236 0.236 0.236 0.236 0.236 0.236 0.236 0.236 0.236 0.236 0.236 0.236 0.236 0.236 0.236 0.236 0.236 0.236 0.236 0.236 0.236 0.236 0.236 0.236 0.236 0.236 0.236 0.239 0.250 0.268 0.286 0.307 0.335 0.365 0.394 0.424 0.453 0.477 0.502 0.382 0.409 0.436 0.462 0.488 0.516 0.547 0.585 0.621 4.000 4.000 4.000 4.000 4.000 4.000 4.000 4.000 4.000 4.000 4.000 4.000 4.000 4.000 4.000 4.000 4.000 4.000 4.000 4.000 4.000 4.000 4.000 4.000 4.000 4.000 4.000 4.000 4.000 4.000 4.000 4.000 4.000 4.000 4.000 4.000 4.000
4.000 4.000 4.000 4.000 4.000 4.000 1.614 1.142 0.737 0.430 0.312 0.256 0.206 0.160 0.122 0.095 0.088 0.088 0.088 0.088 0.088 0.088 0.088 0.088 0.088 0.088 0.088 0.088 0.088 0.088 0.088 0.088 0.088 0.088 0.088 0.088 0.088 0.088 0.088 0.088 0.088 0.088 0.088 0.088 0.088 0.088 0.092 0.104 0.121 0.140 0.163 0.335 0.359 0.382 0.406 0.428 0.449 0.466 0.481 0.496 0.505 0.512 0.516 0.516 0.513 0.508 0.501 0.489 0.475 0.456 0.436 0.415 0.393 0.370 0.346 0.322 0.301 0.281 0.263 0.249 0.240 0.236 0.236 0.236 0.236 0.236 0.236 0.236 0.236 0.236 0.236 0.236 0.236 0.236 0.236 0.236 0.236 0.236 0.236 0.236 0.236 0.236 0.236 0.236 0.236 0.236 0.236 0.236 0.236 0.236 0.236 0.236 0.236 0.236 0.236 0.236 0.236 0.236 0.236 0.236 0.240 0.250 0.264 0.279 0.297 0.321 0.350 0.381 0.413 0.444 0.473 0.502 0.382 0.410 0.439 0.469 0.499 0.530 0.564 4.000 4.000 4.000 4.000 4.000 4.000 4.000 4.000 4.000 4.000 4.000 4.000 4.000 4.000 4.000 4.000 4.000 4.000 4.000 4.000 4.000 4.000 4.000 4.000 4.000 4.000 4.000 4.000 4.000 4.000 4.000 4.000 4.000 4.000 4.000 4.000 4.000 4.000 4.000 4.000
4.000 4.000 4.000 4.000 4.000 4.000 1.614 1.142 0.737 0.430 0.312 0.256 0.206 0.160 0.122 0.095 0.088 0.088 0.088 0.088 0.088 0.088 0.088 0.088 0.088 0.088 0.088 0.088 0.088 0.088 0.088 0.088 0.088 0.088 0.088 0.088 0.088 0.088 0.088 0.088 0.088 0.088 0.088 0.088 0.088 0.090 0.102 0.119 0.140 0.164 0.191 0.366 0.393 0.419 0.445 0.470 0.494 0.513 0.531 0.547 0.558 0.566 0.570 0.571 0.569 0.563 0.555 0.540 0.524 0.505 0.482 0.458 0.432 0.406 0.379 0.352 0.327 0.304 0.282 0.263 0.248 0.238 0.236 0.236 0.236 0.236 0.236 0.236 0.236 0.236 0.236 0.236 0.236 0.236 0.236 0.236 0.236 0.236 0.236 0.236 0.236 0.236 0.236 0.236 0.236 0.236 0.236 0.236 0.236 0.236 0.236 0.236 0.236 0.236 0.236 0.236 0.236 0.236 0.236 0.242 0.254 0.271 0.288 0.306 0.325 0.349 0.377 0.409 0.441 0.473 0.506 0.387 0.416 0.448 0.480 0.513 0.548 4.000 4.000 4.000 4.000 4.000 4.000 4.000 4.000 4.000 4.000 4.000 4.000 4.000 4.000 4.000 4.000 4.000 4.000 4.000 4.000 4.000 4.000 4.000 4.000 4.000 4.000 4.000 4.000 4.000 4.000 4.000 4.000 4.000 4.000 4.000 4.000 4.000 4.000 4.000 4.000 4.000 4.000
4.000 4.000 4.000 4.000 4.000 4.000 1.614 1.142 0.737 0.430 0.312 0.256 0.206 0.160 0.122 0.095 0.088 0.088 0.088 0.088 0.088 0.088 0.088 0.088 0.088 0.088 0.088 0.088 0.088 0.088 0.088 0.088 0.088 0.088 0.088 0.088 0.088 0.088 0.088 0.088 0.088 0.088 0.088 0.088 0.089 0.098 0.115 0.138 0.163 0.191 0.369 0.399 0.429 0.459 0.488 0.515 0.540 0.562 0.583 0.600 0.612 0.623 0.627 0.629 0.627 0.620 0.609 0.594 0.576 0.554 0.528 0.500 0.472 0.442 0.412 0.382 0.353 0.327 0.301 0.279 0.260 0.245 0.237 0.236 0.236 0.236 0.236 0.236 0.236 0.236 0.236 0.236 0.236 0.236 0.236 0.236 0.236 0.236 0.236 0.236 0.236 0.236 0.236 0.236 0.236 0.236 0.236 0.236 0.236 0.236 0.236 0.236 0.236 0.236 0.236 0.236 0.236 0.236 0.242 0.257 0.275 0.295 0.316 0.337 0.361 0.389 0.419 0.451 0.484 0.516 0.402 0.434 0.465 0.498 0.532 0.567 4.000 4.000 4.000 4.000 4.000 4.000 4.000 4.000 4.000 4.000 4.000 4.000 4.000 4.000 4.000 4.000 4.000 4.000 4.000 4.000 4.000 4.000 4.000 4.000 4.000 4.000 4.000 4.000 4.000 4.000 4.000 4.000 4.000 4.000 4.000 4.000 4.000 4.000 4.000 4.000 4.000 4.000 4.000
4.000 4.000 4.000 4.000 4.000 4.000 1.614 1.142 0.737 0.430 0.312 0.256 0.206 0.160 0.122 0.095 0.088 0.088 0.088 0.088 0.088 0.088 0.088 0.088 0.088 0.088 0.088 0.088 0.088 0.088 0.088 0.088 0.088 0.088 0.088 0.088 0.088 0.088 0.088 0.088 0.088 0.088 0.088 0.088 0.092 0.110 0.132 0.158 0.187 0.218 0.399 0.433 0.466 0.499 0.531 0.561 0.589 0.613 0.635 4.000 4.000 4.000 4.000 4.000 4.000 4.000 0.666 0.650 0.629 0.603 0.574 0.543 0.511 0.479 0.445 0.412 0.380 0.351 0.322 0.296 0.273 0.255 0.240 0.236 0.236 0.236 0.236 0.236 0.236 0.236 0.236 0.236 0.236 0.236 0.236 0.236 0.236 0.236 0.236 0.236 0.236 0.236 0.236 0.236 0.236 0.236 0.236 0.236 0.236 0.236 0.236 0.236 0.236 0.236 0.236 0.236 0.236 0.242 0.257 0.275 0.298 0.322 0.346 0.371 0.398 0.429 0.462 0.497 0.532 0.566 0.453 0.487 0.519 0.551 0.586 4.000 4.000 4.000 4.000 4.000 4.000 4.000 4.000 4.000 4.000 4.000 4.000 4.000 4.000 4.000 4.000 4.000 4.000 4.000 4.000 4.000 4.000 4.000 4.000 4.000 4.000 4.000 4.000 4.000 4.000 4.000 4.000 4.000 4.000 4.000 4.000 4.000 4.000 4.000 4.000 4.000 4.000 4.000 4.000
4.000 4.000 4.000 4.000 4.000 4.000 1.614 1.142 0.737 0.430 0.312 0.256 0.206 0.160 0.122 0.095 0.088 0.088 0.088 0.088 0.088 0.088 0.088 0.088 0.088 0.088 0.088 0.088 0.088 0.088 0.088 0.088 0.088 0.088 0.088 0.088 0.088 0.088 0.088 0.088 0.088 0.088 0.088 0.089 0.102 0.124 0.150 0.179 0.211 0.245 0.429 0.466 0.502 0.538 0.573 0.607 0.638 4.000 4.000 4.000 4.000 4.000 4.000 4.000 4.000 4.000 4.000 4.000 4.000 0.652 0.620 0.586 0.550 0.514 0.477 0.441 0.406 0.374 0.343 0.314 0.288 0.266 0.248 0.237 0.236 0.236 0.236 0.236 0.236 0.236 0.236 0.236 0.236 0.236 0.236 0.236 0.236 0.236 0.236 0.236 0.236 0.236 0.236 0.236 0.236 0.236 0.236 0.236 0.236 0.236 0.236 0.236 0.236 0.236 0.236 0.236 0.240 0.254 0.275 0.298 0.325 0.352 0.379 0.407 0.438 0.472 0.506 0.542 0.580 0.469 0.505 0.540 0.573 0.606 4.000 4.000 4.000 4.000 4.000 4.000 4.000 4.000 4.000 4.000 4.000 4.000 4.000 4.000 4.000 4.000 4.000 4.000 4.000 4.000 4.000 4.000 4.000 4.000 4.000 4.000 4.000 4.000 4.000 4.000 4.000 4.000 4.000 4.000 4.000 4.000 4.000 4.000 4.000 4.000 4.000 4.000 4.000 4.000 4.000
4.000 4.000 4.000 4.000 4.000 4.000 1.614 1.142 0.737 0.430 0.312 0.256 0.206 0.160 0.122 0.095 0.088 0.088 0.088 0.088 0.088 0.088 0.088 0.088 0.088 0.088 0.088 0.088 0.088 0.088 0.088 0.088 0.088 0.088 0.088 0.088 0.088 0.088 0.088 0.088 0.088 0.088 0.088 0.093 0.113 0.138 0.167 0.199 0.234 0.271 0.459 0.499 0.538 0.577 0.616 4.000 4.000 4.000 4.000 4.000 4.000 4.000 4.000 4.000 4.000 4.000 4.000 4.000 4.000 4.000 4.000 0.625 0.586 0.546 0.507 0.467 0.430 0.395 0.361 0.330 0.302 0.276 0.255 0.240 0.236 0.236 0.236 0.236 0.236 0.236 0.236 0.236 0.236 0.236 0.236 0.236 0.236 0.236 0.236 0.236 0.236 0.236 0.236 0.236 0.236 0.236 0.236 0.236 0.236 0.236 0.236 0.236 0.236 0.236 0.236 0.238 0.250 0.271 0.295 0.323 0.353 0.383 0.413 0.445 0.478 0.514 0.551 0.590 0.628 0.519 0.556 0.593 0.628 4.000 4.000 4.000 4.000 4.000 4.000 4.000 4.000 4.000 4.000 4.000 4.000 4.000 4.000 4.000 4.000 4.000 4.000 4.000 4.000 4.000 4.000 4.000 4.000 4.000 4.000 4.000 4.000 4.000 4.000 4.000 4.000 4.000 4.000 4.000 4.000 4.000 4.000 4.000 4.000 4.000 4.000 4.000 4.000 4.000 4.000
4.000 4.000 4.000 4.000 4.000 4.000 1.614 1.142 0.737 0.430 0.312 0.256 0.206 0.160 0.122 0.095 0.088 0.088 0.088 0.088 0.088 0.088 0.088 0.088 0.088 0.088 0.088 0.088 0.088 0.088 0.088 0.088 0.088 0.088 0.088 0.088 0.088 0.088 0.088 0.088 0.088 0.088 0.089 0.101 0.124 0.152 0.184 0.219 0.258 0.297 0.488 0.531 0.573 0.616 4.000 4.000 4.000 4.000 4.000 4.000 4.000 4.000 4.000 4.000 4.000 4.000 4.000 4.000 4.000 4.000 4.000 4.000 4.000 0.578 0.535 0.493 0.453 0.415 0.378 0.345 0.314 0.288 0.263 0.244 0.236 0.236 0.236 0.236 0.236 0.236 0.236 0.236 0.236 0.236 0.236 0.236 0.236 0.236 0.236 0.236 0.236 0.236 0.236 0.236 0.236 0.236 0.236 0.236 0.236 0.236 0.236 0.236 0.236 0.236 0.237 0.246 0.264 0.290 0.320 0.352 0.385 0.418 0.451 0.484 0.520 0.558 0.596 0.636 0.529 4.000 4.000 4.000 4.000 4.000 4.000 4.000 4.000 4.000 4.000 4.000 4.000 4.000 4.000 4.000 4.000 4.000 4.000 4.000 4.000 4.000 4.000 4.000 4.000 4.000 4.000 4.000 4.000 4.000 4.000 4.000 4.000 4.000 4.000 4.000 4.000 4.000 4.000 4.000 4.000 4.000 4.000 4.000 4.000 4.000 4.000 4.000 4.000 4.000 4.000
4.000 4.000 4.000 4.000 4.000 4.000 1.614 1.142 0.737 0.430 0.312 0.256 0.206 0.160 0.122 0.095 0.088 0.088 0.088 0.088 0.088 0.088 0.088 0.088 0.088 0.088 0.088 0.088 0.088 0.088 0.088 0.088 0.088 0.088 0.088 0.088 0.088 0.088 0.088 0.088 0.088 0.088 0.092 0.109 0.135 0.166 0.201 0.239 0.280 0.322 0.515 0.561 0.607 4.000 4.000 4.000 4.000 4.000 4.000 4.000 4.000 4.000 4.000 4.000 4.000 4.000 4.000 4.000 4.000 4.000 4.000 4.000 4.000 4.000 0.563 0.518 0.476 0.434 0.394 0.358 0.325 0.297 0.271 0.249 0.237 0.236 0.236 0.236 0.236 0.236 0.236 0.236 0.236 0.236 0.236 0.236 0.236 0.236 0.236 0.236 0.236 0.236 0.236 0.236 0.236 0.236 0.236 0.236 0.236 0.236 0.236 0.236 0.236 0.236 0.240 0.258 0.284 0.314 0.347 0.382 0.418 0.455 0.491 0.527 0.564 0.603 0.643 4.000 4.000 4.000 4.000 4.000 4.000 4.000 4.000 4.000 4.000 4.000 4.000 4.000 4.000 4.000 4.000 4.000 4.000 4.000 4.000 4.000 4.000 4.000 4.000 4.000 4.000 4.000 4.000 4.000 4.000 4.000 4.000 4.000 4.000 4.000 4.000 4.000 4.000 4.000 4.000 4.000 4.000 4.000 4.000 4.000 4.000 4.000 4.000 4.000 4.000 4.000 4.000
4.000 4.000 4.000 4.000 4.000 4.000 1.614 1.142 0.737 0.430 0.312 0.256 0.206 0.160 0.122 0.095 0.088 0.088 0.088 0.088 0.088 0.088 0.088 0.088 0.088 0.088 0.088 0.088 0.088 0.088 0.088 0.088 0.088 0.088 0.088 0.088 0.088 0.088 0.088 0.088 0.088 0.088 0.096 0.117 0.145 0.179 0.217 0.258 0.301 0.347 0.541 0.591 0.640 4.000 4.000 4.000 4.000 4.000 4.000 4.000 4.000 4.000 4.000 4.000 4.000 4.000 4.000 4.000 4.000 4.000 4.000 4.000 4.000 4.000 0.591 0.544 0.498 0.452 0.410 0.371 0.335 0.304 0.277 0.254 0.239 0.236 0.236 0.236 0.236 0.236 0.236 0.236 0.236 0.236 0.236 0.236 0.236 0.236 0.236 0.236 0.236 0.236 0.236 0.236 0.236 0.236 0.236 0.236 0.236 0.236 0.236 0.236 0.236 0.237 0.251 0.275 0.305 0.339 0.375 0.413 0.452 0.491 0.530 0.568 0.608 0.649 4.000 4.000 4.000 4.000 4.000 4.000 4.000 4.000 4.000 4.000 4.000 4.000 4.000 4.000 4.000 4.000 4.000 4.000 4.000 4.000 4.000 4.000 4.000 4.000 4.000 4.000 4.000 4.000 4.000 4.000 4.000 4.000 4.000 4.000 4.000 4.000 4.000 4.000 4.000 4.000 4.000 4.000 4.000 4.000 4.000 4.000 4.000 4.000 4.000 4.000 4.000 4.000 4.000
4.000 4.000 4.000 4.000 4.000 4.000 1.614 1.142 0.737 0.430 0.312 0.256 0.206 0.160 0.122 0.095 0.088 0.088 0.088 0.088 0.088 0.088 0.088 0.088 0.088 0.088 0.088 0.088 0.088 0.088 0.088 0.088 0.088 0.088 0.088 0.088 0.088 0.088 0.088 0.088 0.088 0.089 0.101 0.124 0.155 0.191 0.232 0.276 0.321 0.369 0.567 0.618 4.000 4.000 4.000 4.000 4.000 4.000 4.000 4.000 4.000 4.000 4.000 4.000 4.000 4.000 4.000 4.000 4.000 4.000 4.000 4.000 4.000 4.000 4.000 0.570 0.521 0.472 0.427 0.383 0.344 0.310 0.280 0.257 0.240 0.236 0.236 0.236 0.236 0.236 0.236 0.236 0.236 0.236 0.236 0.236 0.236 0.236 0.236 0.236 0.236 0.236 0.236 0.236 0.236 0.236 0.236 0.236 0.236 0.236 0.236 0.236 0.236 0.243 0.266 0.295 0.328 0.365 0.405 0.445 0.487 0.530 0.571 0.612 0.652 4.000 4.000 4.000 4.000 4.000 4.000 4.000 4.000 4.000 4.000 4.000 4.000 4.000 4.000 4.000 4.000 4.000 4.000 4.000 4.000 4.000 4.000 4.000 4.000 4.000 4.000 4.000 4.000 4.000 4.000 4.000 4.000 4.000 4.000 4.000 4.000 4.000 4.000 4.000 4.000 4.000 4.000 4.000 4.000 4.000 4.000 4.000 4.000 4.000 4.000 4.000 4.000 4.000 4.000
4.000 4.000 4.000 4.000 4.000 4.000 1.614 1.142 0.737 0.430 0.312 0.256 0.206 0.160 0.122 0.095 0.088 0.088 0.088 0.088 0.088 0.088 0.088 0.088 0.088 0.088 0.088 0.088 0.088 0.088 0.088 0.088 0.088 0.088 0.088 0.088 0.088 0.088 0.088 0.088 0.088 0.091 0.106 0.131 0.164 0.203 0.245 0.292 0.340 0.390 0.590 0.643 4.000 4.000 4.000 4.000 4.000 4.000 4.000 4.000 4.000 4.000 4.000 4.000 4.000 4.000 4.000 4.000 4.000 4.000 4.000 4.000 4.000 4.000 4.000 0.594 0.541 0.491 0.443 0.397 0.354 0.316 0.283 0.258 0.242 0.236 0.236 0.236 0.236 0.236 0.236 0.236 0.236 0.236 0.236 0.236 0.236 0.236 0.236 0.236 0.236 0.236 0.236 0.236 0.236 0.236 0.236 0.236 0.236 0.236 0.236 0.236 0.238 0.256 0.283 0.316 0.352 0.392 0.435 0.478 0.522 0.567 0.612 0.655 4.000 4.000 4.000 4.000 4.000 4.000 4.000 4.000 4.000 4.000 4.000 4.000 4.000 4.000 4.000 4.000 4.000 4.000 4.000 4.000 4.000 4.000 4.000 4.000 4.000 4.000 4.000 4.000 4.000 4.000 4.000 4.000 4.000 4.000 4.000 4.000 4.000 4.000 4.000 4.000 4.000 4.000 4.000 4.000 4.000 4.000 4.000 4.000 4.000 4.000 4.000 4.000 4.000 4.000 4.000
4.000 4.000 4.000 4.000 4.000 4.000 1.614 1.142 0.737 0.430 0.312 0.256 0.206 0.160 0.122 0.095 0.088 0.088 0.088 0.088 0.088 0.088 0.088 0.088 0.088 0.088 0.088 0.088 0.088 0.088 0.088 0.088 0.088 0.088 0.088 0.088 0.088 0.088 0.088 0.088 0.088 0.092 0.110 0.137 0.173 0.213 0.258 0.306 0.357 0.409 0.612 4.000 4.000 4.000 4.000 4.000 4.000 4.000 4.000 4.000 4.000 4.000 4.000 4.000 4.000 4.000 4.000 4.000 4.000 4.000 4.000 4.000 4.000 4.000 4.000 0.615 0.560 0.509 0.458 0.409 0.364 0.321 0.285 0.259 0.242 0.236 0.236 0.236 0.236 0.236 0.236 0.236 0.236 0.236 0.236 0.236 0.236 0.236 0.236 0.236 0.236 0.236 0.236 0.236 0.236 0.236 0.236 0.236 0.236 0.236 0.236 0.237 0.246 0.271 0.303 0.339 0.378 0.421 0.466 0.512 0.558 0.606 0.652 4.000 4.000 4.000 4.000 4.000 4.000 4.000 4.000 4.000 4.000 4.000 4.000 4.000 4.000 4.000 4.000 4.000 4.000 4.000 4.000 4.000 4.000 4.000 4.000 4.000 4.000 4.000 4.000 4.000 4.000 4.000 4.000 4.000 4.000 4.000 4.000 4.000 4.000 4.000 4.000 4.000 4.000 4.000 4.000 4.000 4.000 4.000 4.000 4.000 4.000 4.000 4.000 4.000 4.000 4.000 4.000
4.000 4.000 4.000 4.000 4.000 4.000 1.614 1.142 0.737 0.430 0.312 0.256 0.206 0.160 0.122 0.095 0.088 0.088 0.088 0.088 0.088 0.088 0.088 0.088 0.088 0.088 0.088 0.088 0.088 0.088 0.088 0.088 0.088 0.088 0.088 0.088 0.088 0.088 0.088 0.088 0.088 0.094 0.113 0.143 0.180 0.223 0.269 0.319 0.372 0.427 0.631 4.000 4.000 4.000 4.000 4.000 4.000 4.000 4.000 4.000 4.000 4.000 4.000 4.000 4.000 4.000 4.000 4.000 4.000 4.000 4.000 4.000 4.000 4.000 4.000 0.634 0.578 0.523 0.470 0.420 0.372 0.328 0.288 0.258 0.242 0.236 0.236 0.236 0.236 0.236 0.236 0.236 0.236 0.236 0.236 0.236 0.236 0.236 0.236 0.236 0.236 0.236 0.236 0.236 0.236 0.236 0.236 0.236 0.236 0.236 0.236 0.240 0.259 0.288 0.323 0.362 0.405 0.450 0.496 0.545 0.593 0.642 0.692 4.000 4.000 4.000 4.000 4.000 4.000 4.000 4.000 4.000 4.000 4.000 4.000 4.000 4.000 4.000 4.000 4.000 4.000 4.000 4.000 4.000 4.000 4.000 4.000 4.000 4.000 4.000 4.000 4.000 4.000 4.000 4.000 4.000 4.000 4.000 4.000 4.000 4.000 4.000 4.000 4.000 4.000 4.000 4.000 4.000 4.000 4.000 4.000 4.000 4.000 4.000 4.000 4.000 4.000 4.000 4.000
4.000 4.000 4.000 4.000 4.000 4.000 1.614 1.142 0.737 0.430 0.312 0.256 0.206 0.160 0.122 0.095 0.088 0.088 0.088 0.088 0.088 0.088 0.088 0.088 0.088 0.088 0.088 0.088 0.088 0.088 0.088 0.088 0.088 0.088 0.088 0.088 0.088 0.088 0.088 0.088 0.088 0.094 0.116 0.149 0.186 0.231 0.279 0.331 0.385 0.441 0.647 4.000 4.000 4.000 4.000 4.000 4.000 4.000 4.000 4.000 4.000 4.000 4.000 4.000 4.000 4.000 4.000 4.000 4.000 4.000 4.000 4.000 4.000 4.000 4.000 0.650 0.592 0.536 0.482 0.429 0.379 0.332 0.291 0.258 0.240 0.236 0.236 0.236 0.236 0.236 0.236 0.236 0.236 0.236 0.236 0.236 0.236 0.236 0.236 0.236 0.236 0.236 0.236 0.236 0.236 0.236 0.236 0.236 0.236 0.236 0.237 0.250 0.274 0.307 0.345 0.388 0.432 0.479 0.528 0.579 0.630 0.679 4.000 4.000 4.000 4.000 4.000 4.000 4.000 4.000 4.000 4.000 4.000 4.000 4.000 4.000 4.000 4.000 4.000 4.000 4.000 4.000 4.000 4.000 4.000 4.000 4.000 4.000 4.000 4.000 4.000 4.000 4.000 4.000 4.000 4.000 4.000 4.000 4.000 4.000 4.000 4.000 4.000 4.000 4.000 4.000 4.000 4.000 4.000 4.000 4.000 4.000 4.000 4.000 4.000 4.000 4.000 4.000 4.000
