-0.026 -0.033 -0.033 -0.037 -0.041 -0.044 -0.044 -0.044 -0.043 -0.043 -0.043 -0.045 -0.047 -0.047 -0.047 -0.047 -0.047 -0.048 -0.047 -0.046 -0.046 -0.045 -0.045 -0.045 -0.045 -0.046 -0.048 -0.049 -0.049 -0.049 -0.047 -0.046 -0.046 -0.046 -0.046 -0.047 -0.047 -0.046 -0.045 -0.044 -0.043 -0.042 -0.041 -0.042 -0.041 -0.041 -0.039 -0.038 -0.037 -0.035 -0.033 -0.031 -0.029 -0.027 -0.022 -0.023 -0.023 -0.022 -0.022 -0.022 -0.022 -0.024 -0.025 -0.026 -0.028 -0.030 -0.032 -0.035 -0.038 -0.040 -0.043 -0.045 -0.048 -0.050 -0.054 -0.056 -0.056 -0.056 -0.055 -0.054 -0.056 -0.056 -0.056 -0.056 -0.054 -0.052 -0.050 -0.048 -0.048 -0.047 -0.048 -0.048 -0.048 -0.047 -0.046 -0.045 -0.045 -0.045 -0.042 -0.035 -0.027 -0.013 -0.009 -0.006 -0.006 -0.009 -0.010 -0.015 -0.018 -0.026 -0.028 -0.035 -0.039 -0.040 -0.038 -0.029 -0.014 0.002 0.002 -0.005 -0.030 -0.042 -0.052 -0.053 -0.056 -0.061 -0.064 -0.064 -0.063 -0.064 -0.066 -0.067 -0.066 -0.065 -0.064 -0.063 -0.062 -0.060 -0.058 -0.056 -0.054 -0.052 -0.052 -0.050 -0.049 -0.048 -0.047 -0.045 -0.042 -0.039 -0.038 -0.036 -0.032 -0.030 -0.026 -0.022 -0.013 0.045 0.126 0.193 0.221 0.233 0.238 0.243 0.243 0.234 0.217 0.191 0.163 0.116 0.055 -0.034 -0.060 -0.060 -0.042 0.066 0.066 0.038 0.000
-0.026 -0.033 -0.033 -0.038 -0.043 -0.044 -0.045 -0.045 -0.044 -0.044 -0.044 -0.045 -0.047 -0.047 -0.048 -0.048 -0.048 -0.048 -0.048 -0.046 -0.045 -0.043 -0.043 -0.044 -0.046 -0.047 -0.048 -0.048 -0.048 -0.047 -0.046 -0.046 -0.046 -0.046 -0.046 -0.047 -0.046 -0.045 -0.044 -0.044 -0.043 -0.042 -0.042 -0.042 -0.041 -0.040 -0.039 -0.037 -0.036 -0.034 -0.032 -0.030 -0.027 -0.009 -0.001 -0.013 -0.021 -0.022 -0.022 -0.021 -0.021 -0.021 -0.022 -0.022 -0.024 -0.027 -0.028 -0.031 -0.034 -0.037 -0.040 -0.043 -0.046 -0.049 -0.054 -0.056 -0.056 -0.057 -0.057 -0.057 -0.057 -0.056 -0.056 -0.055 -0.052 -0.050 -0.048 -0.047 -0.046 -0.045 -0.046 -0.047 -0.047 -0.047 -0.046 -0.045 -0.045 -0.045 -0.045 -0.044 -0.039 -0.030 -0.015 -0.015 -0.014 -0.016 -0.021 -0.026 -0.026 -0.027 -0.030 -0.037 -0.039 -0.038 -0.036 -0.026 -0.003 0.006 0.006 -0.002 -0.030 -0.042 -0.052 -0.053 -0.055 -0.056 -0.058 -0.060 -0.063 -0.063 -0.065 -0.065 -0.065 -0.064 -0.064 -0.063 -0.061 -0.059 -0.056 -0.053 -0.051 -0.050 -0.049 -0.048 -0.046 -0.045 -0.044 -0.040 -0.038 -0.038 -0.037 -0.035 -0.032 -0.030 -0.025 -0.018 0.015 0.092 0.170 0.221 0.228 0.236 0.244 0.247 0.247 0.244 0.225 0.207 0.190 0.156 0.074 -0.024 -0.060 -0.060 -0.046 0.074 0.074 0.046 0.000
-0.025 -0.034 -0.034 -0.039 -0.043 -0.045 -0.045 -0.045 -0.044 -0.043 -0.043 -0.045 -0.046 -0.047 -0.047 -0.048 -0.049 -0.049 -0.049 -0.045 -0.042 -0.042 -0.042 -0.044 -0.046 -0.047 -0.047 -0.046 -0.046 -0.047 -0.046 -0.046 -0.046 -0.046 -0.046 -0.046 -0.046 -0.045 -0.044 -0.044 -0.042 -0.041 -0.041 -0.041 -0.041 -0.039 -0.038 -0.036 -0.035 -0.033 -0.032 -0.028 -0.019 0.003 0.007 0.005 -0.011 -0.020 -0.020 -0.020 -0.020 -0.019 -0.020 -0.021 -0.021 -0.022 -0.024 -0.027 -0.030 -0.034 -0.037 -0.040 -0.043 -0.047 -0.051 -0.055 -0.056 -0.057 -0.057 -0.057 -0.057 -0.057 -0.056 -0.053 -0.051 -0.048 -0.046 -0.044 -0.044 -0.044 -0.045 -0.045 -0.046 -0.046 -0.046 -0.045 -0.045 -0.045 -0.045 -0.044 -0.040 -0.038 -0.031 -0.030 -0.029 -0.031 -0.030 -0.028 -0.027 -0.028 -0.033 -0.038 -0.038 -0.038 -0.032 -0.026 -0.004 0.004 0.009 0.003 -0.026 -0.042 -0.052 -0.053 -0.055 -0.056 -0.057 -0.060 -0.061 -0.063 -0.065 -0.065 -0.065 -0.065 -0.064 -0.063 -0.061 -0.059 -0.055 -0.052 -0.050 -0.050 -0.048 -0.046 -0.045 -0.043 -0.040 -0.038 -0.037 -0.037 -0.036 -0.034 -0.031 -0.027 -0.018 0.003 0.084 0.151 0.222 0.237 0.249 0.260 0.262 0.259 0.256 0.253 0.244 0.223 0.207 0.185 0.118 0.009 -0.056 -0.056 -0.045 0.058 0.058 0.053 0.000
-0.025 -0.035 -0.035 -0.040 -0.043 -0.045 -0.045 -0.045 -0.045 -0.043 -0.043 -0.045 -0.045 -0.046 -0.047 -0.047 -0.048 -0.048 -0.045 -0.042 -0.038 -0.041 -0.042 -0.044 -0.046 -0.046 -0.047 -0.046 -0.047 -0.048 -0.048 -0.047 -0.046 -0.046 -0.046 -0.046 -0.045 -0.045 -0.044 -0.041 -0.040 -0.040 -0.041 -0.041 -0.040 -0.039 -0.037 -0.035 -0.034 -0.033 -0.031 -0.026 -0.016 0.006 0.015 0.015 0.002 -0.014 -0.017 -0.018 -0.018 -0.018 -0.018 -0.018 -0.018 -0.019 -0.021 -0.023 -0.026 -0.030 -0.034 -0.037 -0.039 -0.042 -0.047 -0.049 -0.053 -0.055 -0.057 -0.057 -0.057 -0.056 -0.054 -0.051 -0.049 -0.046 -0.043 -0.043 -0.043 -0.043 -0.043 -0.043 -0.044 -0.044 -0.044 -0.043 -0.043 -0.043 -0.042 -0.041 -0.040 -0.037 -0.034 -0.031 -0.031 -0.031 -0.030 -0.028 -0.028 -0.030 -0.035 -0.038 -0.038 -0.034 -0.028 -0.023 -0.010 0.004 0.018 0.018 -0.010 -0.032 -0.048 -0.052 -0.055 -0.056 -0.057 -0.060 -0.062 -0.065 -0.065 -0.066 -0.066 -0.066 -0.064 -0.064 -0.063 -0.060 -0.057 -0.053 -0.050 -0.049 -0.047 -0.045 -0.043 -0.042 -0.038 -0.037 -0.036 -0.036 -0.035 -0.031 -0.027 -0.019 -0.002 0.063 0.142 0.221 0.260 0.271 0.278 0.282 0.276 0.275 0.275 0.266 0.258 0.244 0.236 0.202 0.167 0.040 -0.048 -0.053 -0.053 0.037 0.044 0.049 0.000
-0.025 -0.035 -0.035 -0.041 -0.044 -0.045 -0.045 -0.045 -0.045 -0.044 -0.044 -0.045 -0.045 -0.045 -0.045 -0.045 -0.046 -0.044 -0.043 -0.038 -0.037 -0.038 -0.041 -0.043 -0.046 -0.046 -0.047 -0.047 -0.048 -0.049 -0.049 -0.048 -0.046 -0.046 -0.046 -0.045 -0.045 -0.044 -0.041 -0.040 -0.039 -0.039 -0.040 -0.040 -0.039 -0.038 -0.036 -0.035 -0.034 -0.032 -0.030 -0.026 -0.018 0.002 0.014 0.014 0.010 -0.011 -0.013 -0.014 -0.014 -0.014 -0.014 -0.014 -0.016 -0.017 -0.018 -0.020 -0.023 -0.025 -0.030 -0.033 -0.034 -0.037 -0.038 -0.042 -0.047 -0.051 -0.053 -0.054 -0.055 -0.054 -0.051 -0.048 -0.046 -0.043 -0.043 -0.042 -0.042 -0.042 -0.041 -0.041 -0.041 -0.040 -0.040 -0.039 -0.038 -0.037 -0.038 -0.038 -0.037 -0.036 -0.032 -0.031 -0.031 -0.031 -0.028 -0.023 -0.026 -0.028 -0.035 -0.035 -0.034 -0.028 -0.026 -0.023 -0.011 0.011 0.019 0.022 0.016 -0.007 -0.027 -0.049 -0.053 -0.057 -0.061 -0.064 -0.067 -0.068 -0.068 -0.069 -0.069 -0.069 -0.068 -0.068 -0.065 -0.064 -0.060 -0.056 -0.052 -0.050 -0.048 -0.045 -0.043 -0.041 -0.038 -0.037 -0.036 -0.035 -0.034 -0.029 -0.020 -0.006 0.037 0.128 0.221 0.264 0.275 0.286 0.300 0.300 0.293 0.288 0.287 0.277 0.274 0.264 0.251 0.236 0.201 0.054 -0.046 -0.056 -0.056 0.010 0.020 0.024 0.000
-0.026 -0.036 -0.036 -0.041 -0.045 -0.046 -0.046 -0.046 -0.045 -0.044 -0.044 -0.045 -0.045 -0.045 -0.045 -0.045 -0.045 -0.044 -0.043 -0.039 -0.038 -0.039 -0.041 -0.044 -0.045 -0.046 -0.047 -0.047 -0.049 -0.049 -0.049 -0.048 -0.046 -0.045 -0.045 -0.044 -0.043 -0.042 -0.040 -0.040 -0.040 -0.040 -0.040 -0.039 -0.038 -0.037 -0.036 -0.035 -0.033 -0.031 -0.030 -0.028 -0.020 -0.010 0.008 0.012 0.010 -0.008 -0.012 -0.013 -0.012 -0.011 -0.011 -0.012 -0.012 -0.014 -0.015 -0.017 -0.019 -0.022 -0.025 -0.027 -0.029 -0.033 -0.033 -0.034 -0.038 -0.045 -0.050 -0.053 -0.053 -0.051 -0.048 -0.046 -0.043 -0.042 -0.040 -0.039 -0.038 -0.037 -0.038 -0.038 -0.038 -0.037 -0.035 -0.034 -0.034 -0.034 -0.034 -0.035 -0.034 -0.032 -0.031 -0.027 -0.022 -0.012 -0.004 -0.001 -0.001 -0.015 -0.026 -0.027 -0.026 -0.025 -0.023 -0.020 -0.015 -0.001 0.018 0.019 0.019 0.018 0.001 -0.014 -0.047 -0.057 -0.063 -0.067 -0.068 -0.071 -0.071 -0.072 -0.072 -0.072 -0.071 -0.070 -0.069 -0.067 -0.065 -0.060 -0.056 -0.052 -0.049 -0.048 -0.045 -0.042 -0.039 -0.037 -0.037 -0.035 -0.031 -0.026 -0.012 0.020 0.101 0.210 0.265 0.277 0.282 0.298 0.307 0.307 0.300 0.291 0.288 0.286 0.278 0.274 0.264 0.251 0.224 0.092 -0.035 -0.054 -0.054 0.007 0.017 0.022 0.000
-0.026 -0.036 -0.036 -0.041 -0.045 -0.046 -0.046 -0.046 -0.045 -0.045 -0.047 -0.047 -0.047 -0.046 -0.046 -0.046 -0.046 -0.045 -0.044 -0.040 -0.040 -0.040 -0.041 -0.044 -0.045 -0.046 -0.046 -0.046 -0.048 -0.049 -0.048 -0.046 -0.044 -0.043 -0.043 -0.042 -0.042 -0.041 -0.039 -0.041 -0.041 -0.040 -0.039 -0.038 -0.036 -0.036 -0.036 -0.033 -0.032 -0.031 -0.030 -0.029 -0.024 -0.017 -0.009 0.000 -0.003 -0.012 -0.012 -0.012 -0.009 -0.009 -0.008 -0.008 -0.009 -0.010 -0.011 -0.012 -0.014 -0.017 -0.020 -0.023 -0.025 -0.028 -0.031 -0.032 -0.033 -0.036 -0.043 -0.046 -0.046 -0.045 -0.043 -0.041 -0.039 -0.038 -0.037 -0.036 -0.035 -0.034 -0.034 -0.034 -0.034 -0.033 -0.031 -0.031 -0.031 -0.031 -0.032 -0.032 -0.030 -0.029 -0.026 -0.021 -0.012 -0.004 0.007 0.009 0.007 0.003 -0.013 -0.016 -0.021 -0.021 -0.019 -0.018 -0.012 -0.006 0.008 0.018 0.022 0.023 0.028 -0.005 -0.027 -0.057 -0.066 -0.068 -0.071 -0.072 -0.073 -0.074 -0.075 -0.075 -0.074 -0.073 -0.071 -0.070 -0.068 -0.065 -0.060 -0.056 -0.053 -0.050 -0.048 -0.045 -0.041 -0.039 -0.037 -0.035 -0.030 -0.020 0.002 0.084 0.187 0.264 0.277 0.284 0.292 0.303 0.310 0.310 0.299 0.291 0.288 0.286 0.278 0.274 0.266 0.259 0.231 0.132 -0.013 -0.054 -0.054 -0.011 0.009 0.013 0.000
-0.027 -0.037 -0.037 -0.041 -0.045 -0.046 -0.046 -0.047 -0.046 -0.046 -0.047 -0.047 -0.047 -0.047 -0.046 -0.046 -0.046 -0.047 -0.046 -0.044 -0.040 -0.040 -0.042 -0.044 -0.045 -0.046 -0.046 -0.046 -0.047 -0.048 -0.047 -0.044 -0.043 -0.043 -0.042 -0.040 -0.040 -0.039 -0.040 -0.041 -0.041 -0.040 -0.039 -0.036 -0.035 -0.035 -0.033 -0.033 -0.031 -0.031 -0.031 -0.031 -0.028 -0.022 -0.016 -0.013 -0.014 -0.013 -0.012 -0.010 -0.008 -0.006 -0.005 -0.004 -0.005 -0.005 -0.007 -0.008 -0.009 -0.011 -0.014 -0.019 -0.021 -0.024 -0.027 -0.030 -0.031 -0.033 -0.035 -0.038 -0.039 -0.038 -0.037 -0.037 -0.035 -0.033 -0.033 -0.033 -0.032 -0.032 -0.031 -0.030 -0.030 -0.030 -0.029 -0.027 -0.027 -0.027 -0.029 -0.029 -0.028 -0.027 -0.021 -0.016 -0.007 -0.002 0.007 0.009 0.007 0.003 -0.004 -0.009 -0.013 -0.011 -0.012 -0.010 -0.010 -0.008 -0.005 0.016 0.021 0.028 0.028 0.014 -0.016 -0.049 -0.065 -0.070 -0.072 -0.075 -0.078 -0.080 -0.083 -0.080 -0.079 -0.076 -0.074 -0.071 -0.070 -0.067 -0.064 -0.061 -0.056 -0.053 -0.051 -0.048 -0.044 -0.041 -0.038 -0.034 -0.030 -0.013 0.067 0.146 0.239 0.277 0.286 0.293 0.295 0.299 0.303 0.303 0.295 0.290 0.287 0.281 0.274 0.269 0.264 0.254 0.226 0.143 0.001 -0.054 -0.054 -0.032 -0.010 0.000 0.000
-0.027 -0.037 -0.036 -0.040 -0.043 -0.046 -0.047 -0.047 -0.047 -0.047 -0.047 -0.047 -0.047 -0.047 -0.046 -0.046 -0.046 -0.047 -0.047 -0.046 -0.044 -0.043 -0.044 -0.044 -0.045 -0.046 -0.046 -0.045 -0.045 -0.045 -0.043 -0.042 -0.042 -0.042 -0.041 -0.038 -0.038 -0.038 -0.039 -0.041 -0.041 -0.039 -0.036 -0.035 -0.034 -0.034 -0.033 -0.032 -0.031 -0.031 -0.031 -0.031 -0.029 -0.023 -0.019 -0.017 -0.015 -0.013 -0.011 -0.009 -0.006 -0.003 -0.001 -0.001 -0.000 0.001 -0.001 -0.003 -0.004 -0.006 -0.008 -0.013 -0.018 -0.021 -0.023 -0.026 -0.028 -0.030 -0.031 -0.032 -0.033 -0.033 -0.032 -0.031 -0.030 -0.030 -0.030 -0.030 -0.029 -0.029 -0.028 -0.027 -0.027 -0.027 -0.026 -0.024 -0.024 -0.024 -0.026 -0.027 -0.026 -0.022 -0.018 -0.011 -0.007 -0.003 0.001 0.003 0.003 0.003 0.001 -0.003 -0.005 -0.005 -0.002 -0.007 -0.009 -0.011 -0.011 -0.006 0.007 0.018 0.019 -0.005 -0.017 -0.049 -0.065 -0.072 -0.074 -0.079 -0.083 -0.087 -0.088 -0.087 -0.084 -0.080 -0.076 -0.073 -0.070 -0.068 -0.066 -0.064 -0.060 -0.056 -0.053 -0.051 -0.048 -0.043 -0.041 -0.034 -0.028 -0.008 0.087 0.175 0.244 0.286 0.293 0.293 0.293 0.296 0.299 0.296 0.289 0.283 0.276 0.270 0.264 0.262 0.254 0.243 0.217 0.138 0.014 -0.051 -0.054 -0.054 -0.011 0.000 0.000
-0.027 -0.037 -0.037 -0.040 -0.042 -0.045 -0.046 -0.047 -0.047 -0.047 -0.047 -0.047 -0.047 -0.047 -0.046 -0.046 -0.045 -0.046 -0.047 -0.046 -0.045 -0.045 -0.044 -0.044 -0.045 -0.045 -0.045 -0.043 -0.042 -0.042 -0.041 -0.042 -0.041 -0.040 -0.038 -0.037 -0.037 -0.037 -0.037 -0.038 -0.037 -0.035 -0.034 -0.034 -0.034 -0.034 -0.033 -0.032 -0.031 -0.031 -0.031 -0.031 -0.027 -0.024 -0.021 -0.018 -0.015 -0.013 -0.010 -0.006 -0.003 -0.001 0.002 0.003 0.004 0.004 0.004 0.003 0.002 -0.000 -0.003 -0.006 -0.012 -0.015 -0.019 -0.021 -0.023 -0.024 -0.026 -0.026 -0.027 -0.026 -0.025 -0.025 -0.022 -0.024 -0.025 -0.026 -0.026 -0.026 -0.026 -0.026 -0.025 -0.024 -0.023 -0.022 -0.021 -0.022 -0.022 -0.023 -0.022 -0.019 -0.014 -0.009 -0.006 -0.005 -0.005 -0.005 0.000 0.003 0.003 0.000 -0.001 -0.001 -0.001 -0.006 -0.009 -0.012 -0.013 -0.016 -0.013 -0.007 -0.007 -0.012 -0.032 -0.056 -0.067 -0.074 -0.078 -0.083 -0.087 -0.090 -0.091 -0.090 -0.087 -0.083 -0.079 -0.073 -0.070 -0.068 -0.067 -0.066 -0.063 -0.060 -0.056 -0.052 -0.049 -0.047 -0.042 -0.037 -0.025 0.029 0.113 0.166 0.236 0.290 0.293 0.293 0.293 0.290 0.288 0.284 0.280 0.271 0.263 0.253 0.246 0.245 0.238 0.225 0.209 0.135 0.027 -0.044 -0.055 -0.055 -0.013 -0.005 0.000
-0.027 -0.037 -0.037 -0.040 -0.042 -0.043 -0.045 -0.046 -0.045 -0.045 -0.046 -0.046 -0.047 -0.046 -0.046 -0.044 -0.042 -0.042 -0.045 -0.045 -0.046 -0.046 -0.045 -0.045 -0.045 -0.045 -0.045 -0.043 -0.041 -0.041 -0.040 -0.039 -0.038 -0.036 -0.036 -0.035 -0.036 -0.035 -0.035 -0.033 -0.033 -0.033 -0.033 -0.033 -0.034 -0.034 -0.033 -0.032 -0.031 -0.030 -0.029 -0.028 -0.026 -0.022 -0.019 -0.018 -0.014 -0.010 -0.007 -0.003 0.001 0.003 0.005 0.006 0.006 0.007 0.007 0.007 0.006 0.004 0.002 -0.000 -0.005 -0.010 -0.014 -0.017 -0.019 -0.020 -0.021 -0.021 -0.021 -0.019 -0.013 -0.005 -0.012 -0.015 -0.018 -0.022 -0.022 -0.024 -0.024 -0.024 -0.024 -0.022 -0.021 -0.021 -0.021 -0.021 -0.021 -0.021 -0.019 -0.014 -0.009 -0.006 -0.006 -0.007 -0.009 -0.007 -0.006 0.001 0.003 0.005 0.003 0.003 -0.001 -0.007 -0.012 -0.015 -0.019 -0.027 -0.028 -0.028 -0.024 -0.028 -0.042 -0.061 -0.070 -0.075 -0.077 -0.080 -0.086 -0.090 -0.091 -0.090 -0.088 -0.083 -0.077 -0.072 -0.069 -0.068 -0.067 -0.067 -0.064 -0.062 -0.058 -0.055 -0.051 -0.048 -0.043 -0.038 -0.022 0.047 0.090 0.151 0.199 0.253 0.284 0.288 0.284 0.281 0.273 0.269 0.264 0.256 0.249 0.240 0.237 0.230 0.222 0.218 0.202 0.131 0.038 -0.042 -0.056 -0.056 -0.039 -0.011 0.000
-0.027 -0.037 -0.037 -0.040 -0.041 -0.043 -0.044 -0.045 -0.045 -0.044 -0.044 -0.045 -0.046 -0.046 -0.045 -0.044 -0.042 -0.041 -0.040 -0.041 -0.045 -0.046 -0.045 -0.045 -0.045 -0.044 -0.044 -0.042 -0.040 -0.039 -0.038 -0.038 -0.037 -0.035 -0.034 -0.034 -0.034 -0.033 -0.033 -0.033 -0.033 -0.033 -0.033 -0.033 -0.033 -0.033 -0.033 -0.032 -0.030 -0.029 -0.028 -0.027 -0.023 -0.019 -0.017 -0.013 -0.010 -0.006 -0.003 0.002 0.006 0.007 0.007 0.008 0.009 0.009 0.010 0.010 0.009 0.007 0.007 0.004 0.000 -0.004 -0.008 -0.013 -0.014 -0.016 -0.016 -0.013 -0.011 -0.002 0.009 0.017 0.007 -0.011 -0.014 -0.018 -0.020 -0.021 -0.022 -0.022 -0.022 -0.021 -0.021 -0.020 -0.020 -0.019 -0.017 -0.016 -0.010 -0.007 -0.005 -0.006 -0.007 -0.012 -0.016 -0.016 -0.007 0.003 0.011 0.013 0.009 0.000 -0.005 -0.013 -0.018 -0.023 -0.032 -0.042 -0.043 -0.045 -0.044 -0.049 -0.061 -0.070 -0.075 -0.077 -0.079 -0.083 -0.089 -0.091 -0.092 -0.091 -0.089 -0.084 -0.078 -0.070 -0.068 -0.068 -0.069 -0.068 -0.067 -0.064 -0.061 -0.057 -0.053 -0.049 -0.045 -0.038 -0.014 0.038 0.079 0.094 0.162 0.217 0.248 0.263 0.263 0.260 0.252 0.251 0.244 0.240 0.234 0.228 0.222 0.215 0.214 0.206 0.186 0.134 0.041 -0.040 -0.056 -0.056 -0.051 -0.021 0.000
-0.027 -0.037 -0.037 -0.040 -0.041 -0.042 -0.044 -0.044 -0.044 -0.044 -0.042 -0.046 -0.046 -0.046 -0.045 -0.044 -0.041 -0.040 -0.039 -0.038 -0.040 -0.042 -0.045 -0.044 -0.044 -0.043 -0.041 -0.040 -0.038 -0.038 -0.037 -0.036 -0.035 -0.032 -0.031 -0.031 -0.031 -0.032 -0.032 -0.032 -0.032 -0.032 -0.032 -0.032 -0.032 -0.032 -0.032 -0.030 -0.029 -0.028 -0.026 -0.022 -0.020 -0.016 -0.012 -0.008 -0.006 -0.002 0.003 0.007 0.008 0.009 0.009 0.011 0.013 0.013 0.013 0.013 0.013 0.012 0.011 0.009 0.005 0.001 -0.003 -0.006 -0.009 -0.010 -0.009 -0.006 -0.003 0.001 0.015 0.017 0.011 -0.003 -0.012 -0.014 -0.016 -0.018 -0.019 -0.019 -0.019 -0.019 -0.019 -0.018 -0.016 -0.014 -0.010 -0.008 -0.000 -0.002 -0.002 -0.005 -0.011 -0.018 -0.021 -0.021 -0.011 0.006 0.028 0.028 0.013 -0.005 -0.016 -0.023 -0.032 -0.034 -0.046 -0.051 -0.055 -0.056 -0.060 -0.067 -0.072 -0.076 -0.078 -0.079 -0.081 -0.085 -0.090 -0.092 -0.092 -0.092 -0.088 -0.084 -0.078 -0.073 -0.071 -0.070 -0.070 -0.070 -0.067 -0.066 -0.063 -0.060 -0.056 -0.050 -0.045 -0.038 -0.003 0.036 0.047 0.082 0.090 0.143 0.194 0.222 0.232 0.228 0.228 0.228 0.225 0.222 0.217 0.213 0.205 0.208 0.206 0.203 0.178 0.128 0.047 -0.034 -0.054 -0.054 -0.051 -0.021 0.000
-0.026 -0.035 -0.035 -0.039 -0.040 -0.041 -0.041 -0.038 -0.032 -0.029 -0.035 -0.038 -0.046 -0.045 -0.045 -0.043 -0.040 -0.039 -0.038 -0.036 -0.037 -0.037 -0.039 -0.040 -0.039 -0.039 -0.035 -0.032 -0.033 -0.034 -0.035 -0.032 -0.031 -0.031 -0.028 -0.028 -0.029 -0.031 -0.032 -0.032 -0.032 -0.032 -0.032 -0.031 -0.030 -0.029 -0.029 -0.029 -0.027 -0.024 -0.020 -0.016 -0.015 -0.010 -0.007 -0.005 -0.001 0.004 0.008 0.009 0.011 0.014 0.015 0.017 0.018 0.018 0.018 0.018 0.018 0.016 0.015 0.013 0.010 0.006 0.002 -0.001 -0.003 -0.004 -0.004 -0.003 -0.002 0.001 0.008 0.012 0.004 -0.007 -0.010 -0.012 -0.013 -0.014 -0.016 -0.017 -0.018 -0.018 -0.018 -0.016 -0.011 -0.008 -0.000 0.001 0.000 0.000 -0.002 -0.007 -0.013 -0.023 -0.023 -0.022 -0.012 0.010 0.028 0.028 0.010 -0.018 -0.030 -0.034 -0.046 -0.051 -0.058 -0.059 -0.063 -0.064 -0.065 -0.071 -0.077 -0.079 -0.081 -0.082 -0.083 -0.087 -0.091 -0.092 -0.092 -0.091 -0.087 -0.083 -0.079 -0.075 -0.073 -0.071 -0.070 -0.070 -0.067 -0.066 -0.064 -0.062 -0.058 -0.052 -0.045 -0.030 0.005 0.025 0.036 0.046 0.052 0.090 0.128 0.178 0.196 0.202 0.213 0.228 0.225 0.222 0.217 0.212 0.204 0.204 0.203 0.200 0.177 0.123 0.046 -0.028 -0.051 -0.051 -0.040 -0.018 0.000
-0.025 -0.034 -0.032 -0.035 -0.037 -0.034 -0.024 -0.012 0.009 -0.014 -0.018 -0.033 -0.038 -0.042 -0.045 -0.040 -0.039 -0.038 -0.037 -0.036 -0.034 -0.032 -0.034 -0.035 -0.034 -0.033 -0.030 -0.029 -0.029 -0.029 -0.030 -0.030 -0.028 -0.026 -0.026 -0.026 -0.027 -0.030 -0.031 -0.032 -0.032 -0.032 -0.031 -0.030 -0.028 -0.027 -0.026 -0.025 -0.022 -0.018 -0.015 -0.010 -0.008 -0.006 -0.002 -0.001 0.002 0.007 0.010 0.014 0.019 0.022 0.024 0.026 0.027 0.028 0.027 0.026 0.024 0.022 0.019 0.016 0.014 0.011 0.006 0.002 -0.001 -0.002 -0.002 -0.003 -0.002 -0.001 0.001 0.002 -0.001 -0.008 -0.011 -0.011 -0.012 -0.012 -0.013 -0.014 -0.016 -0.016 -0.015 -0.012 -0.005 0.001 0.002 0.002 0.001 -0.000 -0.006 -0.011 -0.016 -0.023 -0.023 -0.022 -0.016 -0.001 0.010 0.012 -0.010 -0.031 -0.038 -0.047 -0.052 -0.061 -0.064 -0.064 -0.065 -0.068 -0.071 -0.075 -0.080 -0.082 -0.082 -0.083 -0.084 -0.089 -0.091 -0.091 -0.091 -0.088 -0.085 -0.083 -0.081 -0.078 -0.076 -0.073 -0.071 -0.070 -0.067 -0.066 -0.065 -0.063 -0.059 -0.055 -0.046 -0.022 0.006 0.023 0.033 0.041 0.048 0.055 0.087 0.141 0.170 0.195 0.213 0.232 0.232 0.229 0.220 0.216 0.204 0.211 0.205 0.200 0.177 0.123 0.040 -0.023 -0.044 -0.044 -0.025 -0.010 0.000
-0.024 -0.030 -0.028 -0.030 -0.029 -0.005 0.038 0.057 0.070 0.058 0.041 -0.018 -0.035 -0.039 -0.040 -0.039 -0.038 -0.037 -0.036 -0.033 -0.032 -0.031 -0.030 -0.030 -0.030 -0.029 -0.029 -0.028 -0.028 -0.028 -0.027 -0.026 -0.026 -0.025 -0.026 -0.026 -0.027 -0.031 -0.031 -0.032 -0.032 -0.031 -0.031 -0.028 -0.026 -0.024 -0.021 -0.020 -0.016 -0.011 -0.007 -0.005 -0.002 0.001 0.007 0.008 0.010 0.014 0.017 0.024 0.033 0.036 0.037 0.039 0.040 0.039 0.037 0.035 0.032 0.029 0.023 0.019 0.016 0.014 0.011 0.006 0.002 -0.001 -0.001 -0.002 -0.002 -0.002 -0.002 -0.002 -0.005 -0.009 -0.011 -0.011 -0.011 -0.012 -0.012 -0.012 -0.013 -0.013 -0.012 -0.010 -0.001 0.002 0.002 0.002 -0.000 -0.004 -0.010 -0.015 -0.017 -0.020 -0.021 -0.021 -0.018 -0.015 -0.010 -0.013 -0.029 -0.038 -0.047 -0.053 -0.062 -0.066 -0.067 -0.068 -0.069 -0.071 -0.074 -0.078 -0.082 -0.082 -0.082 -0.085 -0.088 -0.090 -0.091 -0.090 -0.090 -0.087 -0.085 -0.083 -0.082 -0.081 -0.078 -0.076 -0.072 -0.069 -0.067 -0.066 -0.065 -0.063 -0.060 -0.056 -0.046 -0.020 -0.006 0.022 0.028 0.038 0.050 0.060 0.073 0.089 0.152 0.190 0.248 0.254 0.257 0.287 0.269 0.254 0.233 0.220 0.216 0.204 0.170 0.119 0.040 -0.021 -0.042 -0.042 -0.019 -0.002 0.000
-0.023 -0.028 -0.026 -0.027 -0.005 0.042 0.091 0.125 0.125 0.117 0.084 0.041 -0.017 -0.037 -0.038 -0.038 -0.038 -0.037 -0.037 -0.033 -0.032 -0.030 -0.029 -0.029 -0.028 -0.028 -0.028 -0.028 -0.027 -0.027 -0.025 -0.025 -0.025 -0.025 -0.025 -0.027 -0.029 -0.031 -0.031 -0.031 -0.031 -0.031 -0.031 -0.027 -0.024 -0.021 -0.019 -0.014 -0.010 -0.006 -0.002 0.003 0.008 0.013 0.022 0.026 0.030 0.038 0.042 0.045 0.049 0.053 0.054 0.055 0.053 0.051 0.047 0.045 0.041 0.035 0.029 0.024 0.019 0.016 0.012 0.009 0.004 0.001 -0.000 -0.001 -0.001 -0.002 -0.003 -0.004 -0.006 -0.009 -0.010 -0.011 -0.011 -0.010 -0.010 -0.010 -0.011 -0.012 -0.012 -0.010 -0.004 0.000 0.002 -0.000 -0.007 -0.010 -0.015 -0.017 -0.017 -0.018 -0.020 -0.021 -0.021 -0.021 -0.026 -0.031 -0.034 -0.042 -0.052 -0.062 -0.067 -0.069 -0.071 -0.072 -0.072 -0.074 -0.075 -0.079 -0.082 -0.082 -0.084 -0.088 -0.091 -0.091 -0.091 -0.090 -0.090 -0.087 -0.085 -0.084 -0.083 -0.082 -0.080 -0.078 -0.075 -0.070 -0.067 -0.066 -0.065 -0.063 -0.060 -0.056 -0.040 -0.021 -0.006 0.021 0.030 0.049 0.069 0.074 0.079 0.089 0.158 0.221 0.252 0.281 0.332 0.343 0.344 0.318 0.273 0.231 0.223 0.207 0.170 0.114 0.037 -0.023 -0.039 -0.039 -0.017 -0.000 0.000
-0.019 -0.026 -0.019 -0.006 0.042 0.091 0.160 0.160 0.147 0.131 0.117 0.073 0.014 -0.020 -0.036 -0.036 -0.037 -0.036 -0.036 -0.034 -0.032 -0.030 -0.029 -0.027 -0.025 -0.025 -0.025 -0.026 -0.027 -0.026 -0.025 -0.025 -0.025 -0.025 -0.026 -0.028 -0.029 -0.030 -0.030 -0.031 -0.031 -0.031 -0.029 -0.026 -0.021 -0.019 -0.014 -0.009 -0.005 0.001 0.008 0.017 0.027 0.037 0.044 0.049 0.054 0.058 0.062 0.064 0.068 0.070 0.070 0.070 0.068 0.064 0.061 0.056 0.049 0.043 0.036 0.029 0.024 0.019 0.015 0.011 0.007 0.004 0.002 0.001 -0.001 -0.002 -0.003 -0.005 -0.007 -0.010 -0.010 -0.011 -0.010 -0.009 -0.006 -0.005 -0.007 -0.010 -0.012 -0.012 -0.010 -0.008 -0.008 -0.010 -0.016 -0.019 -0.018 -0.018 -0.017 -0.018 -0.019 -0.022 -0.023 -0.027 -0.030 -0.033 -0.039 -0.044 -0.055 -0.065 -0.067 -0.069 -0.071 -0.072 -0.072 -0.074 -0.075 -0.079 -0.082 -0.083 -0.088 -0.092 -0.092 -0.093 -0.093 -0.091 -0.090 -0.089 -0.086 -0.085 -0.083 -0.083 -0.082 -0.080 -0.077 -0.071 -0.070 -0.067 -0.065 -0.064 -0.060 -0.056 -0.039 -0.027 -0.009 0.016 0.040 0.057 0.075 0.068 0.073 0.083 0.137 0.211 0.252 0.319 0.343 0.361 0.361 0.344 0.301 0.246 0.228 0.203 0.163 0.085 0.036 -0.025 -0.039 -0.039 -0.016 0.000 0.000
-0.018 -0.019 -0.016 0.025 0.091 0.163 0.186 0.177 0.161 0.144 0.120 0.086 0.036 -0.006 -0.022 -0.035 -0.036 -0.036 -0.036 -0.033 -0.032 -0.029 -0.027 -0.023 -0.021 -0.022 -0.024 -0.025 -0.026 -0.026 -0.025 -0.025 -0.025 -0.025 -0.026 -0.027 -0.028 -0.028 -0.029 -0.030 -0.031 -0.030 -0.027 -0.023 -0.019 -0.014 -0.009 -0.002 0.006 0.017 0.030 0.042 0.053 0.061 0.066 0.069 0.073 0.076 0.080 0.082 0.084 0.084 0.083 0.083 0.080 0.077 0.073 0.069 0.061 0.054 0.044 0.035 0.029 0.023 0.019 0.014 0.010 0.007 0.006 0.003 0.001 -0.001 -0.003 -0.005 -0.007 -0.009 -0.009 -0.010 -0.009 -0.006 -0.002 0.002 0.003 -0.004 -0.008 -0.012 -0.014 -0.014 -0.014 -0.017 -0.018 -0.020 -0.020 -0.020 -0.018 -0.018 -0.019 -0.023 -0.027 -0.029 -0.032 -0.034 -0.042 -0.049 -0.056 -0.063 -0.067 -0.067 -0.069 -0.068 -0.069 -0.074 -0.077 -0.080 -0.083 -0.088 -0.092 -0.094 -0.094 -0.095 -0.095 -0.094 -0.093 -0.090 -0.088 -0.086 -0.085 -0.083 -0.083 -0.080 -0.077 -0.073 -0.071 -0.069 -0.067 -0.064 -0.060 -0.054 -0.042 -0.030 -0.018 -0.005 0.030 0.052 0.075 0.068 0.076 0.085 0.132 0.195 0.232 0.281 0.341 0.361 0.361 0.343 0.313 0.246 0.216 0.173 0.150 0.085 0.027 -0.023 -0.036 -0.036 -0.006 0.000 0.000
-0.017 -0.017 -0.013 0.045 0.124 0.198 0.208 0.208 0.188 0.153 0.126 0.095 0.042 0.000 -0.020 -0.028 -0.034 -0.035 -0.035 -0.033 -0.032 -0.029 -0.024 -0.022 -0.021 -0.021 -0.024 -0.025 -0.027 -0.027 -0.026 -0.025 -0.025 -0.025 -0.025 -0.025 -0.026 -0.026 -0.027 -0.027 -0.028 -0.027 -0.023 -0.019 -0.014 -0.007 0.003 0.014 0.025 0.040 0.055 0.066 0.073 0.079 0.083 0.086 0.089 0.092 0.095 0.096 0.097 0.097 0.097 0.095 0.092 0.089 0.085 0.081 0.074 0.065 0.055 0.044 0.035 0.029 0.023 0.018 0.013 0.010 0.009 0.006 0.004 0.001 -0.003 -0.005 -0.006 -0.008 -0.009 -0.007 -0.005 -0.004 0.001 0.004 0.007 0.004 -0.007 -0.014 -0.014 -0.015 -0.017 -0.018 -0.018 -0.020 -0.020 -0.020 -0.020 -0.020 -0.023 -0.027 -0.029 -0.032 -0.034 -0.037 -0.044 -0.052 -0.056 -0.062 -0.064 -0.064 -0.064 -0.064 -0.065 -0.068 -0.074 -0.081 -0.088 -0.092 -0.094 -0.095 -0.095 -0.096 -0.097 -0.096 -0.095 -0.094 -0.090 -0.088 -0.086 -0.085 -0.083 -0.080 -0.078 -0.076 -0.072 -0.070 -0.069 -0.066 -0.060 -0.051 -0.036 -0.030 -0.026 -0.013 0.010 0.035 0.052 0.057 0.068 0.088 0.140 0.171 0.207 0.249 0.316 0.342 0.343 0.330 0.291 0.223 0.189 0.143 0.109 0.066 0.014 -0.023 -0.035 -0.035 -0.000 0.000 0.000
-0.017 -0.017 0.002 0.064 0.156 0.221 0.230 0.227 0.212 0.170 0.131 0.095 0.042 0.002 -0.017 -0.025 -0.028 -0.030 -0.033 -0.032 -0.031 -0.029 -0.025 -0.022 -0.021 -0.022 -0.025 -0.029 -0.029 -0.029 -0.027 -0.025 -0.025 -0.025 -0.024 -0.023 -0.023 -0.021 -0.021 -0.022 -0.022 -0.020 -0.016 -0.009 0.001 0.011 0.023 0.036 0.049 0.064 0.076 0.083 0.088 0.093 0.097 0.101 0.104 0.106 0.109 0.109 0.110 0.110 0.109 0.107 0.104 0.102 0.098 0.092 0.085 0.076 0.065 0.055 0.043 0.034 0.028 0.022 0.016 0.013 0.011 0.010 0.007 0.004 0.000 -0.003 -0.005 -0.006 -0.006 -0.006 -0.005 -0.005 -0.001 0.003 0.007 0.001 -0.006 -0.014 -0.015 -0.017 -0.017 -0.017 -0.018 -0.018 -0.019 -0.020 -0.020 -0.021 -0.023 -0.027 -0.031 -0.033 -0.035 -0.040 -0.046 -0.052 -0.056 -0.062 -0.063 -0.064 -0.062 -0.058 -0.060 -0.065 -0.071 -0.086 -0.092 -0.094 -0.094 -0.095 -0.096 -0.098 -0.098 -0.098 -0.097 -0.095 -0.091 -0.089 -0.087 -0.086 -0.084 -0.081 -0.079 -0.077 -0.073 -0.071 -0.070 -0.067 -0.060 -0.046 -0.032 -0.027 -0.026 -0.024 -0.014 0.011 0.028 0.036 0.053 0.076 0.128 0.153 0.171 0.196 0.271 0.299 0.309 0.291 0.249 0.198 0.150 0.102 0.079 0.040 -0.000 -0.027 -0.030 -0.030 -0.003 0.000 0.000
-0.017 -0.017 0.011 0.077 0.168 0.233 0.237 0.234 0.227 0.192 0.134 0.091 0.027 -0.003 -0.020 -0.025 -0.026 -0.029 -0.030 -0.030 -0.029 -0.029 -0.026 -0.024 -0.024 -0.026 -0.031 -0.030 -0.030 -0.029 -0.026 -0.025 -0.025 -0.024 -0.022 -0.019 -0.019 -0.019 -0.019 -0.018 -0.017 -0.012 0.000 0.011 0.023 0.034 0.045 0.058 0.071 0.083 0.090 0.095 0.100 0.105 0.110 0.114 0.117 0.120 0.121 0.122 0.123 0.124 0.123 0.120 0.116 0.113 0.109 0.104 0.096 0.086 0.076 0.065 0.053 0.041 0.033 0.026 0.020 0.016 0.013 0.012 0.010 0.007 0.004 -0.001 -0.004 -0.005 -0.006 -0.006 -0.005 -0.005 -0.005 -0.003 -0.003 -0.006 -0.008 -0.014 -0.017 -0.018 -0.018 -0.017 -0.017 -0.016 -0.018 -0.019 -0.020 -0.021 -0.023 -0.028 -0.032 -0.034 -0.037 -0.041 -0.046 -0.053 -0.057 -0.062 -0.063 -0.062 -0.052 -0.045 -0.048 -0.062 -0.078 -0.088 -0.093 -0.094 -0.095 -0.096 -0.097 -0.098 -0.098 -0.098 -0.097 -0.095 -0.093 -0.090 -0.089 -0.087 -0.085 -0.082 -0.079 -0.076 -0.073 -0.071 -0.069 -0.066 -0.057 -0.037 -0.026 -0.016 -0.021 -0.027 -0.021 -0.012 0.008 0.024 0.035 0.073 0.121 0.137 0.149 0.153 0.176 0.228 0.256 0.239 0.228 0.163 0.122 0.097 0.042 0.014 -0.008 -0.035 -0.035 -0.029 -0.008 0.000 0.000
-0.017 -0.017 0.016 0.102 0.161 0.226 0.237 0.233 0.222 0.192 0.143 0.064 0.013 -0.009 -0.022 -0.025 -0.026 -0.028 -0.028 -0.029 -0.029 -0.028 -0.027 -0.027 -0.027 -0.032 -0.034 -0.032 -0.030 -0.028 -0.024 -0.023 -0.023 -0.022 -0.019 -0.018 -0.018 -0.018 -0.017 -0.016 -0.009 0.005 0.022 0.034 0.043 0.054 0.066 0.078 0.089 0.095 0.102 0.107 0.112 0.118 0.123 0.127 0.131 0.134 0.135 0.136 0.137 0.137 0.136 0.133 0.128 0.125 0.120 0.113 0.106 0.096 0.086 0.075 0.063 0.050 0.039 0.032 0.024 0.019 0.016 0.013 0.012 0.009 0.004 0.001 -0.002 -0.004 -0.005 -0.005 -0.005 -0.005 -0.005 -0.006 -0.007 -0.010 -0.011 -0.014 -0.018 -0.018 -0.017 -0.017 -0.014 -0.014 -0.015 -0.017 -0.019 -0.021 -0.023 -0.027 -0.032 -0.035 -0.038 -0.043 -0.049 -0.055 -0.059 -0.063 -0.063 -0.063 -0.048 -0.043 -0.043 -0.066 -0.082 -0.090 -0.094 -0.095 -0.096 -0.096 -0.097 -0.098 -0.098 -0.098 -0.096 -0.095 -0.093 -0.091 -0.089 -0.088 -0.085 -0.081 -0.078 -0.076 -0.073 -0.071 -0.068 -0.064 -0.053 -0.023 -0.004 0.006 -0.003 -0.016 -0.017 -0.015 0.003 0.011 0.027 0.056 0.111 0.133 0.143 0.147 0.159 0.184 0.228 0.219 0.216 0.156 0.100 0.053 0.025 0.011 -0.008 -0.035 -0.035 -0.031 -0.014 0.000 0.000
-0.018 -0.018 0.033 0.131 0.153 0.163 0.225 0.218 0.190 0.175 0.126 0.049 0.007 -0.012 -0.022 -0.025 -0.026 -0.028 -0.028 -0.028 -0.029 -0.028 -0.029 -0.030 -0.034 -0.037 -0.035 -0.034 -0.032 -0.026 -0.023 -0.022 -0.021 -0.020 -0.019 -0.018 -0.018 -0.017 -0.016 -0.008 0.007 0.024 0.040 0.051 0.062 0.072 0.081 0.092 0.102 0.107 0.112 0.117 0.124 0.132 0.138 0.142 0.145 0.149 0.149 0.150 0.151 0.151 0.148 0.145 0.142 0.136 0.129 0.121 0.113 0.106 0.096 0.085 0.073 0.060 0.049 0.038 0.029 0.023 0.019 0.016 0.013 0.010 0.006 0.003 -0.001 -0.003 -0.005 -0.005 -0.005 -0.005 -0.005 -0.006 -0.009 -0.011 -0.012 -0.014 -0.017 -0.017 -0.017 -0.017 -0.014 -0.013 -0.014 -0.016 -0.018 -0.020 -0.023 -0.026 -0.031 -0.035 -0.039 -0.043 -0.049 -0.056 -0.060 -0.064 -0.065 -0.066 -0.059 -0.052 -0.061 -0.077 -0.085 -0.090 -0.094 -0.095 -0.096 -0.097 -0.097 -0.098 -0.097 -0.096 -0.096 -0.095 -0.093 -0.091 -0.089 -0.088 -0.084 -0.080 -0.077 -0.075 -0.073 -0.070 -0.066 -0.061 -0.046 -0.013 0.002 0.006 0.003 -0.000 -0.013 -0.010 0.001 0.008 0.022 0.058 0.096 0.126 0.140 0.145 0.147 0.159 0.191 0.196 0.196 0.141 0.084 0.033 0.021 0.006 -0.015 -0.036 -0.036 -0.033 -0.019 -0.003 0.000
-0.019 -0.019 0.059 0.129 0.142 0.153 0.158 0.161 0.155 0.143 0.085 0.027 -0.003 -0.016 -0.021 -0.025 -0.026 -0.027 -0.028 -0.028 -0.029 -0.028 -0.030 -0.033 -0.036 -0.038 -0.037 -0.035 -0.032 -0.026 -0.023 -0.022 -0.020 -0.019 -0.019 -0.018 -0.017 -0.016 -0.008 0.007 0.024 0.042 0.055 0.067 0.076 0.084 0.094 0.104 0.112 0.117 0.123 0.130 0.140 0.147 0.155 0.158 0.160 0.164 0.164 0.165 0.165 0.164 0.160 0.158 0.153 0.144 0.136 0.129 0.121 0.113 0.104 0.094 0.083 0.071 0.059 0.047 0.036 0.027 0.022 0.018 0.015 0.012 0.007 0.004 0.000 -0.002 -0.005 -0.005 -0.005 -0.002 -0.002 -0.005 -0.010 -0.012 -0.014 -0.014 -0.015 -0.017 -0.017 -0.016 -0.014 -0.014 -0.014 -0.015 -0.017 -0.019 -0.023 -0.027 -0.031 -0.035 -0.039 -0.043 -0.049 -0.056 -0.061 -0.065 -0.066 -0.069 -0.067 -0.070 -0.077 -0.081 -0.087 -0.091 -0.094 -0.095 -0.096 -0.096 -0.097 -0.097 -0.097 -0.096 -0.096 -0.094 -0.093 -0.091 -0.089 -0.085 -0.080 -0.079 -0.076 -0.074 -0.071 -0.066 -0.061 -0.057 -0.045 -0.023 -0.002 0.003 0.003 0.001 -0.002 0.000 0.001 0.007 0.019 0.058 0.089 0.105 0.131 0.142 0.145 0.147 0.165 0.184 0.181 0.141 0.093 0.033 0.017 0.003 -0.020 -0.034 -0.034 -0.030 -0.021 -0.006 0.000
-0.015 -0.015 0.074 0.129 0.140 0.145 0.143 0.137 0.127 0.108 0.048 0.009 -0.008 -0.015 -0.020 -0.023 -0.025 -0.027 -0.028 -0.028 -0.029 -0.029 -0.032 -0.034 -0.036 -0.038 -0.038 -0.036 -0.033 -0.028 -0.024 -0.022 -0.021 -0.020 -0.019 -0.018 -0.016 -0.010 0.005 0.024 0.042 0.056 0.068 0.078 0.086 0.095 0.106 0.116 0.122 0.129 0.136 0.146 0.157 0.162 0.170 0.173 0.176 0.178 0.179 0.178 0.177 0.175 0.172 0.169 0.161 0.153 0.144 0.135 0.128 0.119 0.111 0.102 0.092 0.081 0.070 0.057 0.044 0.033 0.027 0.022 0.017 0.013 0.009 0.004 0.001 -0.001 -0.003 -0.003 -0.002 0.000 0.000 -0.003 -0.010 -0.013 -0.014 -0.014 -0.014 -0.014 -0.016 -0.016 -0.016 -0.014 -0.015 -0.016 -0.017 -0.019 -0.023 -0.027 -0.030 -0.035 -0.039 -0.045 -0.051 -0.057 -0.064 -0.066 -0.069 -0.071 -0.074 -0.079 -0.081 -0.085 -0.088 -0.091 -0.094 -0.096 -0.096 -0.096 -0.097 -0.097 -0.096 -0.096 -0.095 -0.093 -0.092 -0.089 -0.088 -0.085 -0.080 -0.078 -0.076 -0.071 -0.066 -0.062 -0.059 -0.053 -0.045 -0.029 -0.015 -0.004 0.001 0.001 0.001 0.004 0.004 0.009 0.024 0.051 0.071 0.086 0.100 0.114 0.110 0.140 0.153 0.161 0.149 0.134 0.093 0.045 0.016 -0.000 -0.020 -0.031 -0.031 -0.030 -0.022 -0.006 0.000
-0.009 -0.009 0.069 0.124 0.137 0.137 0.137 0.125 0.114 0.068 0.017 -0.005 -0.012 -0.015 -0.020 -0.023 -0.025 -0.026 -0.028 -0.029 -0.030 -0.031 -0.032 -0.033 -0.035 -0.037 -0.036 -0.035 -0.033 -0.029 -0.026 -0.024 -0.021 -0.020 -0.018 -0.016 -0.011 -0.000 0.021 0.041 0.056 0.068 0.079 0.089 0.099 0.109 0.121 0.129 0.136 0.143 0.152 0.162 0.172 0.177 0.184 0.188 0.192 0.193 0.193 0.190 0.189 0.186 0.183 0.177 0.169 0.161 0.152 0.143 0.133 0.125 0.117 0.109 0.100 0.091 0.080 0.067 0.051 0.035 0.028 0.024 0.018 0.014 0.010 0.005 0.003 0.001 -0.001 -0.001 0.000 0.001 0.001 -0.005 -0.010 -0.013 -0.014 -0.014 -0.014 -0.014 -0.015 -0.016 -0.016 -0.016 -0.016 -0.017 -0.018 -0.020 -0.024 -0.028 -0.030 -0.035 -0.040 -0.047 -0.052 -0.058 -0.064 -0.069 -0.074 -0.077 -0.079 -0.083 -0.086 -0.088 -0.090 -0.091 -0.094 -0.095 -0.096 -0.096 -0.097 -0.097 -0.097 -0.096 -0.095 -0.092 -0.089 -0.088 -0.087 -0.084 -0.080 -0.078 -0.074 -0.069 -0.062 -0.059 -0.054 -0.050 -0.042 -0.033 -0.027 -0.010 -0.004 0.001 0.004 0.005 0.007 0.012 0.030 0.045 0.051 0.066 0.057 0.054 0.052 0.068 0.120 0.134 0.132 0.118 0.080 0.047 0.007 -0.007 -0.020 -0.034 -0.034 -0.029 -0.025 -0.006 0.000
-0.017 -0.017 0.057 0.116 0.133 0.133 0.129 0.118 0.085 0.025 -0.005 -0.011 -0.013 -0.018 -0.020 -0.021 -0.024 -0.026 -0.028 -0.029 -0.030 -0.031 -0.031 -0.032 -0.034 -0.035 -0.035 -0.034 -0.033 -0.032 -0.028 -0.025 -0.022 -0.020 -0.017 -0.012 -0.003 0.015 0.036 0.053 0.067 0.078 0.089 0.100 0.112 0.123 0.134 0.142 0.150 0.160 0.168 0.177 0.186 0.194 0.199 0.202 0.204 0.205 0.207 0.205 0.202 0.197 0.193 0.183 0.177 0.169 0.159 0.150 0.141 0.132 0.123 0.116 0.108 0.099 0.088 0.074 0.057 0.041 0.031 0.025 0.020 0.015 0.011 0.007 0.005 0.002 0.001 0.000 0.001 0.001 0.000 -0.005 -0.011 -0.013 -0.014 -0.015 -0.014 -0.014 -0.015 -0.016 -0.017 -0.017 -0.018 -0.018 -0.019 -0.022 -0.024 -0.028 -0.030 -0.035 -0.042 -0.049 -0.056 -0.063 -0.069 -0.074 -0.077 -0.080 -0.084 -0.087 -0.089 -0.090 -0.091 -0.093 -0.094 -0.095 -0.096 -0.096 -0.096 -0.097 -0.097 -0.096 -0.094 -0.092 -0.089 -0.088 -0.086 -0.082 -0.079 -0.076 -0.071 -0.065 -0.059 -0.056 -0.052 -0.049 -0.040 -0.035 -0.031 -0.020 -0.006 0.003 0.007 0.008 0.009 0.013 0.026 0.037 0.040 0.040 0.036 0.036 0.035 0.037 0.069 0.110 0.118 0.115 0.072 0.030 0.002 -0.014 -0.025 -0.036 -0.036 -0.029 -0.028 -0.006 0.000
-0.017 -0.017 -0.008 0.057 0.116 0.121 0.115 0.085 0.033 -0.003 -0.012 -0.013 -0.016 -0.019 -0.020 -0.021 -0.022 -0.024 -0.027 -0.029 -0.029 -0.030 -0.030 -0.031 -0.032 -0.034 -0.034 -0.034 -0.033 -0.031 -0.028 -0.025 -0.022 -0.018 -0.013 -0.004 0.011 0.029 0.047 0.063 0.077 0.089 0.100 0.112 0.123 0.134 0.143 0.152 0.162 0.172 0.181 0.188 0.196 0.204 0.211 0.216 0.219 0.219 0.221 0.218 0.215 0.210 0.202 0.193 0.183 0.175 0.166 0.158 0.149 0.140 0.130 0.122 0.114 0.106 0.093 0.079 0.063 0.047 0.033 0.026 0.020 0.016 0.012 0.008 0.006 0.004 0.002 0.002 0.002 0.001 0.000 -0.006 -0.010 -0.013 -0.014 -0.015 -0.015 -0.015 -0.016 -0.018 -0.019 -0.019 -0.020 -0.021 -0.021 -0.022 -0.024 -0.028 -0.030 -0.035 -0.043 -0.052 -0.058 -0.064 -0.070 -0.075 -0.078 -0.082 -0.086 -0.088 -0.090 -0.092 -0.092 -0.093 -0.094 -0.095 -0.095 -0.096 -0.095 -0.096 -0.096 -0.095 -0.093 -0.090 -0.088 -0.087 -0.084 -0.081 -0.077 -0.073 -0.067 -0.061 -0.055 -0.053 -0.050 -0.045 -0.039 -0.035 -0.032 -0.025 -0.010 0.005 0.008 0.009 0.010 0.013 0.026 0.028 0.033 0.033 0.033 0.034 0.035 0.037 0.069 0.102 0.105 0.101 0.067 0.021 0.001 -0.017 -0.030 -0.039 -0.039 -0.032 -0.022 -0.001 0.000
-0.018 -0.018 -0.015 -0.007 0.045 0.056 0.052 0.033 -0.000 -0.011 -0.013 -0.017 -0.019 -0.020 -0.020 -0.020 -0.019 -0.020 -0.023 -0.027 -0.027 -0.027 -0.029 -0.030 -0.031 -0.032 -0.033 -0.033 -0.031 -0.029 -0.026 -0.022 -0.018 -0.014 -0.007 0.006 0.022 0.041 0.057 0.073 0.087 0.098 0.110 0.122 0.133 0.143 0.152 0.162 0.172 0.181 0.190 0.195 0.205 0.216 0.223 0.230 0.233 0.234 0.234 0.231 0.227 0.222 0.211 0.202 0.191 0.182 0.175 0.166 0.158 0.148 0.139 0.129 0.120 0.111 0.098 0.083 0.067 0.049 0.035 0.026 0.021 0.016 0.013 0.009 0.006 0.005 0.003 0.002 0.001 0.000 -0.003 -0.005 -0.009 -0.013 -0.014 -0.015 -0.016 -0.018 -0.018 -0.019 -0.020 -0.021 -0.022 -0.022 -0.022 -0.023 -0.024 -0.027 -0.031 -0.036 -0.045 -0.052 -0.058 -0.065 -0.071 -0.076 -0.079 -0.083 -0.086 -0.089 -0.092 -0.092 -0.093 -0.094 -0.095 -0.095 -0.095 -0.095 -0.094 -0.095 -0.095 -0.094 -0.092 -0.089 -0.087 -0.084 -0.081 -0.077 -0.073 -0.068 -0.063 -0.058 -0.053 -0.051 -0.048 -0.044 -0.039 -0.035 -0.032 -0.025 -0.009 0.006 0.008 0.010 0.010 0.017 0.026 0.028 0.033 0.033 0.035 0.037 0.049 0.069 0.090 0.102 0.100 0.095 0.060 0.014 -0.011 -0.022 -0.035 -0.039 -0.039 -0.033 -0.020 0.000 0.000
-0.019 -0.019 -0.017 -0.014 -0.008 0.004 0.004 -0.000 -0.008 -0.013 -0.017 -0.018 -0.021 -0.022 -0.021 -0.020 -0.018 -0.019 -0.020 -0.022 -0.025 -0.027 -0.028 -0.030 -0.031 -0.031 -0.031 -0.031 -0.027 -0.026 -0.023 -0.019 -0.015 -0.009 0.001 0.016 0.033 0.050 0.067 0.083 0.096 0.108 0.119 0.128 0.138 0.148 0.158 0.170 0.181 0.189 0.195 0.204 0.216 0.226 0.236 0.241 0.245 0.247 0.247 0.243 0.241 0.232 0.222 0.211 0.199 0.190 0.182 0.175 0.166 0.157 0.148 0.138 0.127 0.115 0.102 0.086 0.071 0.053 0.038 0.028 0.022 0.016 0.013 0.009 0.006 0.005 0.002 0.002 0.001 -0.003 -0.005 -0.006 -0.007 -0.010 -0.013 -0.015 -0.016 -0.018 -0.019 -0.019 -0.021 -0.023 -0.023 -0.023 -0.022 -0.022 -0.023 -0.025 -0.029 -0.035 -0.043 -0.052 -0.057 -0.065 -0.071 -0.076 -0.080 -0.083 -0.086 -0.089 -0.092 -0.093 -0.093 -0.094 -0.094 -0.094 -0.094 -0.094 -0.093 -0.093 -0.094 -0.093 -0.090 -0.087 -0.083 -0.079 -0.076 -0.073 -0.068 -0.063 -0.061 -0.057 -0.053 -0.049 -0.046 -0.044 -0.039 -0.037 -0.032 -0.024 -0.008 0.006 0.009 0.010 0.010 0.018 0.026 0.028 0.038 0.047 0.054 0.072 0.083 0.104 0.120 0.105 0.100 0.086 0.053 0.011 -0.015 -0.025 -0.033 -0.039 -0.039 -0.028 -0.017 0.000 0.000
-0.019 -0.020 -0.018 -0.019 -0.014 -0.008 -0.007 -0.009 -0.014 -0.017 -0.018 -0.023 -0.023 -0.023 -0.023 -0.021 -0.018 -0.019 -0.021 -0.022 -0.024 -0.025 -0.027 -0.031 -0.031 -0.031 -0.031 -0.028 -0.026 -0.025 -0.022 -0.018 -0.015 -0.007 0.007 0.026 0.044 0.062 0.078 0.092 0.104 0.114 0.124 0.134 0.143 0.154 0.165 0.178 0.188 0.195 0.204 0.212 0.226 0.236 0.244 0.252 0.255 0.258 0.257 0.254 0.251 0.241 0.232 0.219 0.208 0.198 0.189 0.181 0.174 0.166 0.156 0.145 0.132 0.118 0.104 0.089 0.073 0.057 0.041 0.030 0.023 0.018 0.014 0.009 0.005 0.004 0.002 -0.001 -0.003 -0.006 -0.008 -0.008 -0.007 -0.007 -0.007 -0.006 -0.014 -0.018 -0.019 -0.020 -0.022 -0.025 -0.025 -0.024 -0.023 -0.023 -0.024 -0.024 -0.026 -0.029 -0.038 -0.049 -0.056 -0.063 -0.070 -0.076 -0.080 -0.083 -0.087 -0.089 -0.091 -0.093 -0.094 -0.094 -0.094 -0.094 -0.094 -0.093 -0.093 -0.092 -0.091 -0.090 -0.087 -0.083 -0.079 -0.076 -0.073 -0.069 -0.064 -0.062 -0.059 -0.056 -0.052 -0.048 -0.046 -0.045 -0.041 -0.038 -0.033 -0.025 -0.011 0.004 0.008 0.009 0.009 0.016 0.028 0.043 0.049 0.056 0.064 0.083 0.105 0.113 0.123 0.113 0.100 0.074 0.043 0.004 -0.017 -0.026 -0.031 -0.036 -0.036 -0.021 -0.013 0.000 0.000
-0.018 -0.022 -0.019 -0.022 -0.019 -0.017 -0.015 -0.015 -0.017 -0.018 -0.022 -0.023 -0.024 -0.024 -0.024 -0.023 -0.022 -0.021 -0.022 -0.023 -0.025 -0.025 -0.025 -0.032 -0.032 -0.031 -0.029 -0.027 -0.025 -0.023 -0.022 -0.018 -0.010 0.001 0.017 0.036 0.055 0.071 0.084 0.097 0.109 0.120 0.129 0.139 0.150 0.162 0.173 0.186 0.195 0.204 0.212 0.222 0.233 0.244 0.252 0.261 0.265 0.267 0.265 0.263 0.259 0.251 0.240 0.227 0.216 0.205 0.197 0.188 0.182 0.174 0.163 0.152 0.137 0.122 0.107 0.094 0.076 0.058 0.042 0.032 0.025 0.020 0.014 0.010 0.005 0.002 -0.001 -0.004 -0.007 -0.009 -0.010 -0.010 -0.009 -0.006 -0.000 0.008 0.002 -0.011 -0.018 -0.020 -0.025 -0.025 -0.025 -0.025 -0.024 -0.024 -0.025 -0.025 -0.025 -0.028 -0.030 -0.047 -0.054 -0.063 -0.070 -0.077 -0.081 -0.083 -0.087 -0.090 -0.091 -0.093 -0.094 -0.094 -0.094 -0.094 -0.094 -0.093 -0.091 -0.090 -0.088 -0.087 -0.083 -0.081 -0.078 -0.074 -0.070 -0.065 -0.063 -0.062 -0.059 -0.055 -0.050 -0.047 -0.046 -0.045 -0.044 -0.040 -0.035 -0.027 -0.013 0.002 0.007 0.008 0.009 0.014 0.030 0.049 0.051 0.055 0.064 0.087 0.106 0.118 0.121 0.118 0.108 0.074 0.035 -0.001 -0.016 -0.026 -0.031 -0.036 -0.036 -0.021 -0.010 0.000 0.000
-0.019 -0.024 -0.024 -0.024 -0.024 -0.022 -0.019 -0.019 -0.019 -0.020 -0.023 -0.023 -0.025 -0.024 -0.024 -0.024 -0.024 -0.023 -0.025 -0.025 -0.025 -0.026 -0.031 -0.033 -0.032 -0.032 -0.028 -0.026 -0.024 -0.023 -0.022 -0.016 -0.007 0.007 0.027 0.046 0.063 0.076 0.089 0.101 0.113 0.124 0.136 0.146 0.156 0.167 0.180 0.195 0.204 0.213 0.223 0.232 0.242 0.251 0.261 0.269 0.275 0.277 0.276 0.273 0.267 0.259 0.248 0.234 0.222 0.210 0.199 0.190 0.183 0.177 0.167 0.157 0.141 0.128 0.112 0.096 0.078 0.061 0.045 0.033 0.025 0.020 0.015 0.010 0.004 0.000 -0.001 -0.005 -0.007 -0.010 -0.011 -0.012 -0.011 -0.006 0.006 0.009 0.008 -0.004 -0.017 -0.023 -0.026 -0.027 -0.027 -0.027 -0.026 -0.026 -0.027 -0.025 -0.025 -0.028 -0.029 -0.044 -0.055 -0.064 -0.071 -0.077 -0.081 -0.085 -0.088 -0.090 -0.091 -0.093 -0.093 -0.094 -0.094 -0.094 -0.094 -0.093 -0.090 -0.089 -0.087 -0.084 -0.083 -0.080 -0.076 -0.073 -0.067 -0.063 -0.062 -0.061 -0.059 -0.054 -0.049 -0.047 -0.046 -0.046 -0.045 -0.041 -0.037 -0.028 -0.016 0.005 0.008 0.008 0.010 0.015 0.029 0.050 0.053 0.059 0.061 0.073 0.095 0.106 0.113 0.108 0.097 0.070 0.043 0.007 -0.011 -0.019 -0.027 -0.035 -0.035 -0.021 -0.006 0.000 0.000
-0.021 -0.026 -0.025 -0.027 -0.026 -0.024 -0.022 -0.020 -0.020 -0.022 -0.023 -0.026 -0.026 -0.027 -0.026 -0.025 -0.026 -0.026 -0.028 -0.029 -0.028 -0.030 -0.033 -0.033 -0.033 -0.031 -0.027 -0.024 -0.022 -0.021 -0.017 -0.011 0.001 0.018 0.037 0.053 0.068 0.081 0.093 0.105 0.117 0.131 0.143 0.152 0.162 0.173 0.186 0.203 0.213 0.223 0.231 0.241 0.251 0.259 0.269 0.279 0.286 0.289 0.289 0.285 0.276 0.267 0.256 0.240 0.226 0.214 0.202 0.194 0.185 0.180 0.167 0.159 0.145 0.129 0.113 0.096 0.080 0.064 0.049 0.035 0.027 0.021 0.017 0.011 0.004 0.000 -0.002 -0.004 -0.006 -0.009 -0.012 -0.014 -0.014 -0.011 -0.001 0.008 0.003 -0.012 -0.023 -0.026 -0.032 -0.031 -0.031 -0.031 -0.031 -0.032 -0.033 -0.031 -0.030 -0.029 -0.035 -0.048 -0.057 -0.066 -0.072 -0.077 -0.082 -0.086 -0.089 -0.090 -0.091 -0.092 -0.093 -0.094 -0.094 -0.094 -0.094 -0.093 -0.090 -0.088 -0.086 -0.084 -0.083 -0.081 -0.078 -0.071 -0.066 -0.062 -0.061 -0.060 -0.058 -0.053 -0.048 -0.046 -0.046 -0.046 -0.046 -0.044 -0.040 -0.030 -0.016 0.006 0.008 0.008 0.010 0.014 0.029 0.049 0.052 0.054 0.057 0.061 0.077 0.095 0.105 0.104 0.094 0.082 0.049 0.015 -0.000 -0.013 -0.024 -0.032 -0.032 -0.019 -0.003 0.000 0.000
-0.021 -0.027 -0.027 -0.027 -0.027 -0.024 -0.022 -0.022 -0.021 -0.023 -0.023 -0.026 -0.027 -0.027 -0.027 -0.026 -0.028 -0.030 -0.030 -0.031 -0.031 -0.034 -0.035 -0.034 -0.033 -0.030 -0.026 -0.022 -0.020 -0.017 -0.011 -0.004 0.008 0.023 0.042 0.059 0.072 0.085 0.099 0.110 0.121 0.134 0.147 0.158 0.167 0.179 0.194 0.209 0.221 0.228 0.238 0.248 0.258 0.268 0.280 0.291 0.298 0.301 0.301 0.297 0.286 0.276 0.263 0.247 0.233 0.222 0.210 0.196 0.187 0.182 0.167 0.159 0.149 0.131 0.116 0.098 0.083 0.069 0.052 0.037 0.028 0.022 0.017 0.011 0.005 0.001 -0.002 -0.004 -0.006 -0.008 -0.011 -0.013 -0.014 -0.014 -0.012 -0.009 -0.012 -0.025 -0.029 -0.034 -0.035 -0.037 -0.037 -0.036 -0.037 -0.038 -0.039 -0.040 -0.040 -0.041 -0.046 -0.053 -0.061 -0.067 -0.073 -0.078 -0.082 -0.085 -0.088 -0.090 -0.091 -0.092 -0.093 -0.094 -0.094 -0.094 -0.094 -0.094 -0.091 -0.089 -0.087 -0.086 -0.083 -0.082 -0.078 -0.073 -0.067 -0.062 -0.060 -0.059 -0.058 -0.053 -0.048 -0.046 -0.046 -0.046 -0.046 -0.046 -0.040 -0.031 -0.016 0.008 0.008 0.008 0.008 0.009 0.020 0.033 0.050 0.052 0.052 0.057 0.069 0.083 0.101 0.103 0.104 0.088 0.068 0.043 0.022 0.010 -0.012 -0.028 -0.027 -0.014 -0.001 0.000 0.000
-0.021 -0.027 -0.026 -0.027 -0.026 -0.025 -0.022 -0.022 -0.021 -0.022 -0.023 -0.024 -0.026 -0.027 -0.027 -0.028 -0.029 -0.030 -0.031 -0.032 -0.032 -0.034 -0.035 -0.034 -0.032 -0.027 -0.025 -0.022 -0.018 -0.012 -0.007 0.002 0.016 0.032 0.048 0.063 0.075 0.090 0.103 0.113 0.125 0.138 0.150 0.161 0.173 0.185 0.201 0.214 0.225 0.233 0.243 0.256 0.268 0.280 0.291 0.302 0.309 0.311 0.310 0.305 0.297 0.285 0.270 0.253 0.244 0.231 0.218 0.201 0.191 0.178 0.166 0.159 0.146 0.131 0.119 0.100 0.086 0.070 0.053 0.039 0.028 0.022 0.016 0.010 0.004 0.001 -0.002 -0.004 -0.006 -0.009 -0.011 -0.014 -0.015 -0.016 -0.017 -0.017 -0.026 -0.030 -0.034 -0.036 -0.038 -0.039 -0.039 -0.041 -0.042 -0.043 -0.045 -0.045 -0.046 -0.049 -0.053 -0.057 -0.062 -0.065 -0.070 -0.077 -0.083 -0.085 -0.088 -0.088 -0.090 -0.091 -0.092 -0.093 -0.094 -0.094 -0.094 -0.094 -0.093 -0.090 -0.088 -0.086 -0.085 -0.083 -0.079 -0.074 -0.068 -0.062 -0.060 -0.058 -0.056 -0.053 -0.049 -0.046 -0.045 -0.046 -0.046 -0.046 -0.042 -0.033 -0.017 0.008 0.008 0.008 0.006 0.005 0.011 0.025 0.041 0.050 0.049 0.052 0.059 0.069 0.094 0.100 0.104 0.104 0.084 0.057 0.036 0.025 0.013 -0.019 -0.019 -0.012 0.000 0.001 0.000
-0.022 -0.026 -0.026 -0.026 -0.026 -0.025 -0.023 -0.022 -0.022 -0.023 -0.023 -0.023 -0.024 -0.026 -0.027 -0.029 -0.030 -0.030 -0.030 -0.032 -0.032 -0.034 -0.033 -0.032 -0.030 -0.026 -0.024 -0.018 -0.014 -0.011 -0.005 0.007 0.022 0.037 0.051 0.066 0.079 0.094 0.107 0.116 0.127 0.141 0.154 0.166 0.178 0.191 0.207 0.219 0.229 0.240 0.253 0.267 0.279 0.291 0.303 0.313 0.318 0.320 0.318 0.313 0.305 0.292 0.274 0.264 0.251 0.245 0.233 0.218 0.198 0.184 0.169 0.157 0.146 0.133 0.119 0.102 0.087 0.071 0.056 0.042 0.029 0.022 0.016 0.010 0.004 0.001 -0.002 -0.005 -0.008 -0.009 -0.011 -0.014 -0.016 -0.017 -0.019 -0.027 -0.029 -0.033 -0.034 -0.036 -0.038 -0.039 -0.041 -0.042 -0.043 -0.045 -0.047 -0.049 -0.051 -0.053 -0.056 -0.061 -0.064 -0.064 -0.065 -0.076 -0.082 -0.085 -0.087 -0.088 -0.089 -0.090 -0.092 -0.092 -0.093 -0.093 -0.094 -0.093 -0.092 -0.090 -0.088 -0.087 -0.085 -0.083 -0.079 -0.075 -0.071 -0.066 -0.060 -0.058 -0.056 -0.053 -0.049 -0.046 -0.045 -0.045 -0.045 -0.045 -0.043 -0.035 -0.022 -0.005 0.002 0.003 0.001 0.001 0.005 0.010 0.019 0.027 0.039 0.047 0.056 0.069 0.093 0.099 0.104 0.113 0.113 0.069 0.042 0.029 0.021 -0.006 -0.012 -0.012 0.002 0.002 0.000
-0.021 -0.026 -0.025 -0.025 -0.026 -0.025 -0.024 -0.022 -0.022 -0.022 -0.023 -0.023 -0.023 -0.025 -0.027 -0.028 -0.029 -0.030 -0.030 -0.030 -0.031 -0.032 -0.031 -0.029 -0.027 -0.025 -0.023 -0.017 -0.011 -0.007 -0.002 0.009 0.023 0.038 0.054 0.069 0.084 0.100 0.111 0.121 0.131 0.145 0.159 0.173 0.183 0.197 0.212 0.225 0.237 0.250 0.263 0.277 0.291 0.303 0.313 0.322 0.325 0.326 0.324 0.319 0.311 0.296 0.280 0.273 0.269 0.258 0.259 0.247 0.224 0.196 0.173 0.159 0.148 0.133 0.120 0.106 0.088 0.072 0.057 0.043 0.030 0.020 0.014 0.009 0.004 0.001 -0.003 -0.006 -0.008 -0.009 -0.011 -0.013 -0.016 -0.018 -0.023 -0.029 -0.032 -0.033 -0.034 -0.035 -0.036 -0.039 -0.041 -0.043 -0.045 -0.047 -0.049 -0.050 -0.053 -0.055 -0.060 -0.062 -0.064 -0.063 -0.062 -0.063 -0.078 -0.084 -0.086 -0.087 -0.088 -0.089 -0.091 -0.092 -0.092 -0.092 -0.092 -0.092 -0.091 -0.090 -0.088 -0.086 -0.084 -0.081 -0.078 -0.074 -0.071 -0.068 -0.064 -0.059 -0.056 -0.053 -0.049 -0.046 -0.045 -0.044 -0.044 -0.044 -0.042 -0.034 -0.026 -0.018 -0.013 -0.001 -0.003 -0.006 -0.006 -0.006 0.001 0.008 0.019 0.036 0.054 0.068 0.092 0.098 0.104 0.113 0.113 0.083 0.042 0.031 0.021 0.002 -0.006 -0.006 0.002 0.002 0.000
-0.021 -0.025 -0.025 -0.025 -0.026 -0.026 -0.024 -0.022 -0.022 -0.021 -0.021 -0.022 -0.021 -0.022 -0.024 -0.026 -0.027 -0.029 -0.028 -0.029 -0.029 -0.029 -0.028 -0.026 -0.025 -0.025 -0.020 -0.014 -0.010 -0.005 0.001 0.013 0.026 0.040 0.057 0.073 0.090 0.104 0.114 0.121 0.135 0.150 0.165 0.177 0.187 0.201 0.217 0.231 0.246 0.258 0.272 0.288 0.301 0.312 0.322 0.328 0.331 0.331 0.329 0.324 0.314 0.300 0.285 0.279 0.277 0.286 0.289 0.281 0.248 0.224 0.194 0.164 0.148 0.133 0.119 0.106 0.088 0.073 0.056 0.042 0.029 0.019 0.011 0.007 0.004 0.001 -0.003 -0.005 -0.008 -0.009 -0.010 -0.012 -0.014 -0.018 -0.025 -0.029 -0.032 -0.033 -0.033 -0.034 -0.034 -0.037 -0.040 -0.043 -0.045 -0.047 -0.049 -0.052 -0.055 -0.058 -0.062 -0.064 -0.064 -0.062 -0.055 -0.055 -0.063 -0.080 -0.085 -0.087 -0.088 -0.089 -0.091 -0.092 -0.092 -0.091 -0.090 -0.090 -0.088 -0.087 -0.085 -0.084 -0.082 -0.079 -0.075 -0.072 -0.070 -0.068 -0.065 -0.062 -0.056 -0.053 -0.049 -0.045 -0.045 -0.044 -0.044 -0.043 -0.041 -0.034 -0.027 -0.025 -0.021 -0.013 -0.013 -0.013 -0.012 -0.012 -0.008 -0.000 0.006 0.022 0.044 0.065 0.092 0.094 0.098 0.104 0.103 0.073 0.038 0.029 0.011 0.004 -0.001 -0.001 0.006 0.006 0.001
-0.021 -0.025 -0.025 -0.026 -0.027 -0.026 -0.024 -0.023 -0.022 -0.022 -0.022 -0.022 -0.021 -0.021 -0.022 -0.022 -0.021 -0.020 -0.021 -0.022 -0.026 -0.027 -0.026 -0.025 -0.025 -0.020 -0.014 -0.008 -0.007 -0.005 -0.001 0.014 0.027 0.042 0.060 0.077 0.095 0.107 0.117 0.128 0.141 0.156 0.171 0.180 0.190 0.205 0.222 0.235 0.250 0.264 0.280 0.295 0.308 0.319 0.328 0.336 0.339 0.338 0.333 0.327 0.316 0.303 0.288 0.283 0.283 0.298 0.300 0.289 0.269 0.239 0.196 0.168 0.148 0.136 0.119 0.105 0.087 0.071 0.055 0.041 0.027 0.019 0.011 0.007 0.003 -0.000 -0.004 -0.005 -0.006 -0.008 -0.009 -0.010 -0.012 -0.016 -0.023 -0.027 -0.029 -0.031 -0.032 -0.032 -0.033 -0.034 -0.037 -0.041 -0.044 -0.045 -0.048 -0.052 -0.055 -0.059 -0.063 -0.065 -0.065 -0.062 -0.047 -0.047 -0.057 -0.078 -0.085 -0.087 -0.088 -0.089 -0.091 -0.091 -0.091 -0.090 -0.089 -0.088 -0.086 -0.085 -0.084 -0.082 -0.080 -0.075 -0.072 -0.069 -0.068 -0.066 -0.064 -0.060 -0.055 -0.049 -0.046 -0.045 -0.044 -0.043 -0.043 -0.042 -0.039 -0.034 -0.028 -0.027 -0.026 -0.024 -0.021 -0.019 -0.019 -0.018 -0.014 -0.008 -0.000 0.007 0.032 0.061 0.082 0.092 0.093 0.092 0.088 0.063 0.033 0.022 0.006 0.001 -0.001 -0.001 0.007 0.007 0.001
-0.020 -0.025 -0.025 -0.027 -0.027 -0.026 -0.024 -0.023 -0.023 -0.023 -0.023 -0.022 -0.021 -0.021 -0.021 -0.020 -0.003 -0.003 -0.010 -0.020 -0.022 -0.024 -0.025 -0.024 -0.020 -0.011 -0.002 -0.006 -0.006 -0.004 -0.001 0.013 0.027 0.044 0.063 0.081 0.098 0.111 0.122 0.135 0.151 0.165 0.174 0.183 0.193 0.208 0.226 0.241 0.257 0.272 0.287 0.300 0.312 0.324 0.336 0.342 0.344 0.343 0.338 0.329 0.318 0.305 0.291 0.291 0.286 0.300 0.300 0.288 0.267 0.244 0.205 0.168 0.149 0.134 0.119 0.105 0.087 0.070 0.054 0.038 0.024 0.016 0.011 0.007 0.002 -0.001 -0.004 -0.005 -0.006 -0.006 -0.007 -0.008 -0.010 -0.013 -0.019 -0.023 -0.025 -0.027 -0.027 -0.028 -0.030 -0.031 -0.033 -0.037 -0.042 -0.044 -0.046 -0.051 -0.056 -0.060 -0.064 -0.067 -0.067 -0.064 -0.057 -0.057 -0.060 -0.077 -0.083 -0.087 -0.088 -0.089 -0.091 -0.091 -0.091 -0.089 -0.088 -0.087 -0.085 -0.085 -0.084 -0.082 -0.078 -0.074 -0.070 -0.068 -0.065 -0.064 -0.061 -0.056 -0.049 -0.044 -0.040 -0.042 -0.043 -0.043 -0.042 -0.039 -0.038 -0.033 -0.029 -0.029 -0.028 -0.028 -0.027 -0.024 -0.021 -0.020 -0.017 -0.013 -0.004 0.005 0.027 0.047 0.067 0.079 0.083 0.083 0.074 0.062 0.040 0.018 0.006 -0.001 -0.001 -0.001 0.009 0.009 0.002
-0.020 -0.025 -0.025 -0.027 -0.027 -0.026 -0.025 -0.024 -0.024 -0.024 -0.024 -0.024 -0.021 -0.020 -0.019 0.001 0.016 0.010 -0.003 -0.016 -0.022 -0.023 -0.023 -0.022 -0.010 0.002 0.002 -0.002 -0.006 -0.005 -0.002 0.011 0.028 0.047 0.066 0.085 0.101 0.114 0.127 0.139 0.154 0.168 0.175 0.183 0.194 0.211 0.228 0.244 0.261 0.277 0.291 0.304 0.316 0.329 0.340 0.346 0.346 0.344 0.340 0.331 0.319 0.306 0.292 0.286 0.284 0.286 0.288 0.276 0.263 0.239 0.193 0.164 0.145 0.132 0.119 0.104 0.087 0.067 0.049 0.034 0.023 0.015 0.010 0.006 0.002 -0.002 -0.004 -0.005 -0.006 -0.006 -0.006 -0.007 -0.009 -0.012 -0.015 -0.019 -0.023 -0.023 -0.024 -0.024 -0.026 -0.028 -0.030 -0.033 -0.038 -0.042 -0.045 -0.049 -0.055 -0.060 -0.065 -0.067 -0.068 -0.068 -0.064 -0.062 -0.065 -0.079 -0.083 -0.087 -0.088 -0.089 -0.091 -0.091 -0.090 -0.088 -0.088 -0.087 -0.086 -0.085 -0.084 -0.083 -0.079 -0.074 -0.069 -0.065 -0.063 -0.060 -0.051 -0.038 -0.027 -0.019 -0.024 -0.030 -0.034 -0.038 -0.039 -0.038 -0.037 -0.033 -0.031 -0.031 -0.030 -0.029 -0.028 -0.026 -0.024 -0.022 -0.017 -0.014 -0.006 0.002 0.012 0.030 0.046 0.054 0.067 0.074 0.073 0.063 0.048 0.018 0.009 -0.001 0.004 0.005 0.012 0.012 0.003
-0.020 -0.025 -0.025 -0.026 -0.026 -0.025 -0.024 -0.024 -0.025 -0.024 -0.025 -0.024 -0.022 -0.020 -0.012 0.012 0.021 0.018 -0.004 -0.020 -0.023 -0.023 -0.023 -0.021 -0.013 0.002 0.002 -0.004 -0.009 -0.008 -0.003 0.011 0.030 0.050 0.070 0.089 0.104 0.117 0.130 0.144 0.157 0.168 0.175 0.183 0.196 0.211 0.229 0.246 0.264 0.280 0.294 0.307 0.319 0.332 0.343 0.347 0.347 0.344 0.339 0.329 0.318 0.305 0.293 0.284 0.282 0.281 0.276 0.268 0.246 0.210 0.190 0.160 0.144 0.133 0.119 0.100 0.083 0.063 0.045 0.032 0.023 0.015 0.011 0.006 0.000 -0.003 -0.004 -0.004 -0.005 -0.006 -0.006 -0.006 -0.008 -0.010 -0.013 -0.017 -0.020 -0.023 -0.023 -0.024 -0.024 -0.025 -0.027 -0.030 -0.035 -0.039 -0.043 -0.047 -0.054 -0.059 -0.065 -0.068 -0.069 -0.069 -0.069 -0.068 -0.074 -0.079 -0.083 -0.087 -0.088 -0.089 -0.089 -0.090 -0.090 -0.089 -0.088 -0.088 -0.087 -0.087 -0.085 -0.084 -0.080 -0.075 -0.068 -0.065 -0.060 -0.041 -0.016 0.001 0.006 0.002 -0.006 -0.014 -0.027 -0.033 -0.037 -0.037 -0.035 -0.033 -0.032 -0.032 -0.032 -0.030 -0.028 -0.027 -0.026 -0.022 -0.018 -0.014 -0.008 -0.001 0.006 0.014 0.030 0.036 0.049 0.061 0.066 0.065 0.060 0.023 0.010 -0.005 -0.005 0.002 0.011 0.011 0.001
-0.020 -0.026 -0.025 -0.026 -0.026 -0.025 -0.024 -0.024 -0.025 -0.025 -0.025 -0.024 -0.022 -0.020 -0.012 0.006 0.010 0.002 -0.020 -0.023 -0.024 -0.023 -0.023 -0.021 -0.016 -0.013 -0.013 -0.013 -0.012 -0.010 -0.004 0.011 0.032 0.052 0.073 0.091 0.108 0.120 0.131 0.144 0.157 0.168 0.175 0.184 0.198 0.212 0.229 0.246 0.267 0.283 0.295 0.308 0.320 0.333 0.343 0.345 0.345 0.343 0.337 0.328 0.317 0.303 0.290 0.282 0.278 0.270 0.267 0.246 0.214 0.193 0.177 0.157 0.145 0.133 0.119 0.095 0.074 0.056 0.045 0.031 0.022 0.015 0.012 0.007 0.000 -0.003 -0.003 -0.004 -0.004 -0.004 -0.005 -0.006 -0.006 -0.008 -0.012 -0.016 -0.019 -0.021 -0.023 -0.023 -0.024 -0.025 -0.026 -0.029 -0.034 -0.038 -0.042 -0.046 -0.052 -0.058 -0.064 -0.068 -0.070 -0.071 -0.072 -0.073 -0.078 -0.080 -0.084 -0.086 -0.088 -0.088 -0.089 -0.089 -0.090 -0.090 -0.089 -0.089 -0.089 -0.089 -0.087 -0.085 -0.082 -0.077 -0.069 -0.064 -0.041 -0.011 0.027 0.036 0.027 0.020 0.007 -0.009 -0.018 -0.025 -0.032 -0.033 -0.033 -0.032 -0.033 -0.032 -0.032 -0.031 -0.029 -0.027 -0.026 -0.023 -0.021 -0.015 -0.009 -0.003 0.005 0.008 0.014 0.025 0.035 0.049 0.061 0.063 0.063 0.033 0.010 -0.015 -0.015 -0.004 0.010 0.010 0.001
-0.021 -0.026 -0.025 -0.026 -0.026 -0.025 -0.025 -0.026 -0.026 -0.026 -0.026 -0.024 -0.022 -0.021 -0.019 -0.012 -0.014 -0.020 -0.025 -0.025 -0.026 -0.025 -0.024 -0.021 -0.019 -0.017 -0.017 -0.015 -0.013 -0.011 -0.003 0.013 0.033 0.055 0.074 0.093 0.110 0.122 0.131 0.143 0.156 0.167 0.174 0.186 0.199 0.211 0.227 0.245 0.264 0.281 0.294 0.306 0.318 0.330 0.339 0.343 0.343 0.339 0.333 0.324 0.314 0.300 0.285 0.276 0.268 0.252 0.240 0.217 0.197 0.182 0.168 0.159 0.145 0.132 0.112 0.092 0.071 0.061 0.048 0.034 0.023 0.015 0.012 0.007 0.002 -0.001 -0.002 -0.001 -0.001 -0.001 -0.003 -0.004 -0.006 -0.008 -0.011 -0.014 -0.017 -0.020 -0.022 -0.024 -0.024 -0.027 -0.028 -0.030 -0.034 -0.038 -0.042 -0.047 -0.052 -0.058 -0.063 -0.068 -0.071 -0.072 -0.073 -0.074 -0.079 -0.081 -0.083 -0.084 -0.086 -0.087 -0.088 -0.089 -0.090 -0.090 -0.090 -0.091 -0.091 -0.091 -0.089 -0.087 -0.083 -0.078 -0.071 -0.062 -0.024 0.024 0.040 0.043 0.039 0.027 0.013 -0.004 -0.012 -0.019 -0.025 -0.029 -0.031 -0.032 -0.032 -0.032 -0.032 -0.031 -0.029 -0.028 -0.026 -0.024 -0.021 -0.016 -0.010 -0.003 0.001 0.006 0.010 0.014 0.024 0.035 0.048 0.058 0.055 0.040 0.010 -0.026 -0.026 -0.010 0.010 0.010 0.001
-0.021 -0.026 -0.026 -0.027 -0.027 -0.026 -0.026 -0.026 -0.026 -0.026 -0.027 -0.025 -0.023 -0.023 -0.023 -0.023 -0.024 -0.026 -0.027 -0.028 -0.029 -0.029 -0.026 -0.024 -0.022 -0.020 -0.018 -0.017 -0.013 -0.009 -0.001 0.015 0.035 0.057 0.077 0.096 0.112 0.122 0.131 0.142 0.154 0.165 0.175 0.187 0.199 0.210 0.226 0.244 0.261 0.277 0.291 0.303 0.315 0.327 0.335 0.338 0.338 0.334 0.328 0.321 0.309 0.296 0.279 0.266 0.252 0.239 0.222 0.203 0.188 0.175 0.164 0.154 0.144 0.127 0.103 0.082 0.073 0.065 0.052 0.042 0.023 0.014 0.011 0.006 0.004 0.002 0.002 0.002 0.003 0.003 0.002 -0.002 -0.004 -0.006 -0.009 -0.013 -0.016 -0.019 -0.021 -0.024 -0.027 -0.028 -0.030 -0.032 -0.035 -0.038 -0.043 -0.047 -0.053 -0.059 -0.063 -0.068 -0.071 -0.072 -0.073 -0.075 -0.079 -0.081 -0.082 -0.084 -0.085 -0.086 -0.086 -0.087 -0.090 -0.091 -0.091 -0.092 -0.092 -0.092 -0.091 -0.089 -0.084 -0.078 -0.070 -0.054 -0.013 0.024 0.040 0.043 0.039 0.025 0.009 -0.005 -0.010 -0.012 -0.017 -0.023 -0.028 -0.030 -0.031 -0.032 -0.032 -0.031 -0.029 -0.028 -0.027 -0.025 -0.023 -0.018 -0.013 -0.006 -0.001 0.004 0.006 0.013 0.019 0.024 0.034 0.047 0.042 0.033 0.009 -0.027 -0.027 -0.011 0.007 0.007 0.000
-0.021 -0.027 -0.027 -0.028 -0.029 -0.027 -0.026 -0.027 -0.027 -0.028 -0.028 -0.026 -0.025 -0.025 -0.025 -0.025 -0.026 -0.027 -0.027 -0.029 -0.030 -0.030 -0.029 -0.026 -0.025 -0.022 -0.021 -0.018 -0.013 -0.008 -0.000 0.017 0.037 0.059 0.079 0.098 0.113 0.122 0.131 0.141 0.152 0.164 0.174 0.186 0.197 0.209 0.225 0.240 0.257 0.274 0.288 0.299 0.311 0.323 0.328 0.331 0.330 0.328 0.321 0.315 0.304 0.289 0.269 0.252 0.239 0.228 0.212 0.195 0.182 0.174 0.162 0.151 0.132 0.110 0.091 0.076 0.073 0.072 0.064 0.044 0.024 0.014 0.010 0.005 0.004 0.004 0.010 0.017 0.019 0.018 0.011 0.003 -0.001 -0.005 -0.009 -0.012 -0.015 -0.018 -0.021 -0.024 -0.027 -0.029 -0.031 -0.033 -0.036 -0.039 -0.044 -0.048 -0.054 -0.059 -0.063 -0.067 -0.070 -0.072 -0.073 -0.075 -0.079 -0.080 -0.081 -0.083 -0.085 -0.085 -0.085 -0.085 -0.089 -0.091 -0.092 -0.092 -0.092 -0.092 -0.092 -0.090 -0.085 -0.080 -0.071 -0.059 -0.024 0.008 0.027 0.033 0.026 0.012 -0.000 -0.006 -0.010 -0.010 -0.010 -0.014 -0.021 -0.027 -0.030 -0.031 -0.031 -0.030 -0.029 -0.029 -0.028 -0.026 -0.024 -0.019 -0.014 -0.008 -0.003 0.000 0.005 0.010 0.014 0.019 0.026 0.033 0.033 0.028 -0.002 -0.031 -0.031 -0.016 0.006 0.006 0.000
-0.021 -0.028 -0.027 -0.029 -0.029 -0.028 -0.028 -0.028 -0.028 -0.028 -0.028 -0.028 -0.026 -0.026 -0.026 -0.027 -0.027 -0.027 -0.027 -0.028 -0.030 -0.030 -0.030 -0.028 -0.026 -0.025 -0.022 -0.019 -0.012 -0.008 0.001 0.015 0.036 0.059 0.080 0.098 0.112 0.122 0.131 0.141 0.151 0.161 0.172 0.184 0.196 0.209 0.223 0.238 0.254 0.268 0.282 0.295 0.308 0.319 0.324 0.326 0.325 0.322 0.315 0.307 0.295 0.278 0.263 0.240 0.229 0.221 0.205 0.195 0.178 0.167 0.159 0.142 0.119 0.102 0.086 0.078 0.078 0.075 0.075 0.046 0.023 0.010 0.006 0.005 0.005 0.009 0.024 0.034 0.044 0.036 0.026 0.018 0.003 -0.003 -0.007 -0.011 -0.014 -0.017 -0.020 -0.023 -0.027 -0.030 -0.032 -0.034 -0.037 -0.039 -0.044 -0.050 -0.056 -0.060 -0.064 -0.067 -0.070 -0.072 -0.073 -0.074 -0.077 -0.080 -0.080 -0.081 -0.082 -0.083 -0.084 -0.085 -0.087 -0.089 -0.091 -0.092 -0.092 -0.092 -0.092 -0.090 -0.087 -0.080 -0.073 -0.065 -0.039 -0.019 -0.000 0.010 0.005 -0.000 -0.007 -0.009 -0.009 -0.007 -0.003 -0.004 -0.016 -0.024 -0.026 -0.029 -0.029 -0.029 -0.029 -0.028 -0.027 -0.026 -0.024 -0.018 -0.014 -0.010 -0.006 -0.001 0.004 0.007 0.011 0.015 0.019 0.025 0.025 0.019 -0.011 -0.032 -0.032 -0.017 0.004 0.004 0.000
-0.020 -0.027 -0.027 -0.029 -0.029 -0.028 -0.028 -0.029 -0.029 -0.029 -0.030 -0.028 -0.028 -0.027 -0.027 -0.028 -0.028 -0.027 -0.026 -0.026 -0.028 -0.029 -0.029 -0.028 -0.026 -0.026 -0.023 -0.019 -0.011 -0.006 0.002 0.012 0.031 0.055 0.078 0.096 0.112 0.122 0.131 0.141 0.149 0.159 0.170 0.183 0.195 0.208 0.222 0.237 0.251 0.264 0.278 0.292 0.304 0.316 0.322 0.322 0.322 0.315 0.309 0.298 0.284 0.268 0.256 0.234 0.226 0.218 0.200 0.194 0.178 0.163 0.154 0.142 0.119 0.102 0.086 0.078 0.076 0.072 0.072 0.043 0.019 0.009 0.005 0.005 0.005 0.012 0.034 0.042 0.048 0.045 0.028 0.022 0.010 -0.004 -0.006 -0.009 -0.013 -0.017 -0.020 -0.023 -0.025 -0.029 -0.033 -0.035 -0.037 -0.040 -0.043 -0.050 -0.056 -0.060 -0.063 -0.067 -0.070 -0.071 -0.072 -0.075 -0.078 -0.079 -0.080 -0.080 -0.080 -0.082 -0.083 -0.084 -0.085 -0.087 -0.090 -0.092 -0.092 -0.092 -0.091 -0.090 -0.086 -0.080 -0.073 -0.067 -0.054 -0.039 -0.029 -0.020 -0.012 -0.017 -0.014 -0.012 -0.009 -0.005 -0.003 -0.004 -0.013 -0.021 -0.024 -0.025 -0.025 -0.025 -0.027 -0.027 -0.027 -0.026 -0.021 -0.017 -0.013 -0.009 -0.006 -0.002 0.002 0.006 0.007 0.011 0.014 0.015 0.014 0.011 -0.014 -0.036 -0.036 -0.019 0.001 0.001 0.000
-0.020 -0.027 -0.027 -0.028 -0.029 -0.028 -0.029 -0.030 -0.030 -0.031 -0.031 -0.029 -0.028 -0.028 -0.028 -0.029 -0.028 -0.028 -0.026 -0.026 -0.027 -0.027 -0.028 -0.028 -0.028 -0.026 -0.023 -0.019 -0.011 -0.006 -0.000 0.008 0.025 0.051 0.075 0.096 0.111 0.122 0.130 0.140 0.149 0.158 0.169 0.180 0.193 0.206 0.222 0.236 0.249 0.263 0.276 0.289 0.301 0.313 0.322 0.322 0.321 0.315 0.301 0.290 0.279 0.265 0.241 0.234 0.226 0.218 0.200 0.193 0.180 0.166 0.155 0.147 0.127 0.107 0.086 0.078 0.071 0.066 0.046 0.029 0.015 0.007 0.005 0.004 0.004 0.009 0.033 0.042 0.048 0.045 0.024 0.018 0.003 -0.004 -0.008 -0.009 -0.012 -0.017 -0.020 -0.022 -0.024 -0.027 -0.031 -0.035 -0.037 -0.040 -0.044 -0.048 -0.055 -0.060 -0.063 -0.067 -0.070 -0.071 -0.074 -0.076 -0.079 -0.079 -0.080 -0.080 -0.080 -0.080 -0.082 -0.083 -0.084 -0.085 -0.087 -0.089 -0.091 -0.091 -0.091 -0.089 -0.085 -0.079 -0.075 -0.071 -0.066 -0.054 -0.046 -0.038 -0.033 -0.031 -0.026 -0.022 -0.015 -0.009 -0.005 -0.008 -0.016 -0.023 -0.024 -0.024 -0.020 -0.019 -0.023 -0.025 -0.025 -0.023 -0.019 -0.014 -0.010 -0.007 -0.003 -0.001 0.001 0.005 0.006 0.007 0.009 0.010 0.010 0.005 -0.018 -0.037 -0.037 -0.019 0.001 0.001 0.000
-0.021 -0.027 -0.027 -0.028 -0.029 -0.029 -0.029 -0.031 -0.032 -0.032 -0.032 -0.030 -0.030 -0.030 -0.030 -0.030 -0.030 -0.029 -0.027 -0.026 -0.027 -0.027 -0.028 -0.029 -0.028 -0.027 -0.024 -0.020 -0.012 -0.005 0.000 0.006 0.020 0.043 0.070 0.092 0.107 0.118 0.128 0.139 0.149 0.158 0.167 0.178 0.192 0.209 0.225 0.239 0.251 0.262 0.274 0.290 0.305 0.316 0.322 0.322 0.321 0.312 0.298 0.282 0.275 0.263 0.250 0.238 0.233 0.223 0.206 0.191 0.176 0.163 0.152 0.147 0.141 0.112 0.086 0.074 0.063 0.046 0.033 0.025 0.013 0.007 0.005 0.004 0.003 0.005 0.019 0.031 0.038 0.024 0.016 0.004 -0.004 -0.007 -0.009 -0.011 -0.013 -0.015 -0.019 -0.021 -0.022 -0.026 -0.030 -0.034 -0.038 -0.040 -0.044 -0.049 -0.054 -0.059 -0.063 -0.066 -0.070 -0.072 -0.074 -0.077 -0.079 -0.079 -0.080 -0.080 -0.080 -0.079 -0.080 -0.082 -0.084 -0.084 -0.085 -0.085 -0.089 -0.089 -0.088 -0.088 -0.084 -0.078 -0.074 -0.072 -0.069 -0.063 -0.052 -0.047 -0.044 -0.041 -0.036 -0.030 -0.024 -0.017 -0.014 -0.017 -0.022 -0.024 -0.024 -0.022 -0.017 -0.017 -0.019 -0.021 -0.022 -0.020 -0.014 -0.010 -0.006 -0.004 -0.002 -0.001 0.002 0.006 0.006 0.007 0.008 0.009 0.008 0.002 -0.018 -0.037 -0.037 -0.016 0.001 0.004 0.000
-0.022 -0.026 -0.026 -0.028 -0.029 -0.029 -0.030 -0.032 -0.032 -0.033 -0.032 -0.031 -0.031 -0.030 -0.030 -0.030 -0.030 -0.030 -0.030 -0.028 -0.028 -0.028 -0.029 -0.029 -0.028 -0.027 -0.023 -0.020 -0.015 -0.007 -0.001 0.003 0.012 0.031 0.058 0.083 0.101 0.115 0.125 0.137 0.147 0.157 0.166 0.180 0.195 0.213 0.229 0.241 0.254 0.264 0.278 0.293 0.306 0.319 0.328 0.325 0.321 0.309 0.295 0.285 0.279 0.271 0.262 0.250 0.249 0.236 0.221 0.191 0.177 0.163 0.149 0.147 0.143 0.124 0.091 0.064 0.045 0.034 0.028 0.022 0.011 0.006 0.004 0.002 0.001 0.002 0.008 0.013 0.014 0.004 -0.002 -0.008 -0.010 -0.011 -0.012 -0.013 -0.014 -0.016 -0.019 -0.020 -0.021 -0.023 -0.027 -0.032 -0.037 -0.041 -0.044 -0.049 -0.053 -0.057 -0.061 -0.065 -0.070 -0.072 -0.074 -0.077 -0.079 -0.079 -0.081 -0.081 -0.080 -0.078 -0.078 -0.080 -0.082 -0.084 -0.084 -0.084 -0.085 -0.088 -0.087 -0.086 -0.083 -0.078 -0.074 -0.073 -0.069 -0.064 -0.054 -0.049 -0.045 -0.042 -0.037 -0.034 -0.030 -0.026 -0.024 -0.025 -0.026 -0.026 -0.025 -0.021 -0.016 -0.016 -0.016 -0.018 -0.019 -0.016 -0.010 -0.006 -0.004 -0.002 -0.002 0.001 0.006 0.007 0.007 0.007 0.008 0.009 0.009 0.005 -0.018 -0.033 -0.033 -0.010 0.005 0.005 0.000
-0.023 -0.026 -0.025 -0.026 -0.029 -0.029 -0.031 -0.032 -0.033 -0.033 -0.033 -0.032 -0.032 -0.031 -0.031 -0.032 -0.032 -0.032 -0.032 -0.032 -0.031 -0.030 -0.030 -0.030 -0.029 -0.028 -0.022 -0.019 -0.018 -0.011 -0.002 0.001 0.006 0.021 0.046 0.074 0.098 0.111 0.122 0.134 0.144 0.156 0.168 0.185 0.202 0.219 0.233 0.248 0.262 0.275 0.291 0.305 0.319 0.331 0.339 0.333 0.324 0.310 0.298 0.291 0.285 0.283 0.284 0.283 0.281 0.262 0.233 0.191 0.179 0.160 0.148 0.144 0.142 0.119 0.085 0.050 0.034 0.031 0.025 0.020 0.011 0.005 0.003 0.001 -0.001 -0.001 -0.001 -0.001 -0.005 -0.007 -0.010 -0.012 -0.014 -0.015 -0.016 -0.017 -0.017 -0.020 -0.020 -0.020 -0.019 -0.020 -0.025 -0.031 -0.037 -0.041 -0.045 -0.049 -0.053 -0.056 -0.061 -0.065 -0.068 -0.071 -0.073 -0.075 -0.078 -0.079 -0.081 -0.081 -0.081 -0.080 -0.080 -0.080 -0.081 -0.083 -0.083 -0.084 -0.084 -0.085 -0.085 -0.084 -0.082 -0.077 -0.074 -0.073 -0.069 -0.063 -0.054 -0.048 -0.044 -0.041 -0.035 -0.032 -0.031 -0.030 -0.029 -0.029 -0.029 -0.028 -0.027 -0.023 -0.017 -0.016 -0.016 -0.016 -0.016 -0.013 -0.008 -0.005 -0.003 -0.002 0.000 0.005 0.009 0.010 0.011 0.013 0.015 0.024 0.014 0.009 -0.012 -0.031 -0.031 -0.010 0.007 0.007 0.000
-0.024 -0.026 -0.025 -0.026 -0.026 -0.029 -0.032 -0.032 -0.033 -0.033 -0.032 -0.032 -0.032 -0.032 -0.033 -0.033 -0.033 -0.033 -0.032 -0.032 -0.032 -0.032 -0.032 -0.031 -0.030 -0.028 -0.023 -0.020 -0.019 -0.012 -0.004 -0.000 0.005 0.015 0.032 0.061 0.086 0.103 0.116 0.127 0.143 0.157 0.175 0.191 0.210 0.227 0.245 0.261 0.277 0.292 0.306 0.323 0.339 0.351 0.346 0.344 0.330 0.320 0.305 0.300 0.299 0.305 0.308 0.308 0.290 0.281 0.253 0.214 0.185 0.160 0.147 0.143 0.136 0.103 0.086 0.051 0.035 0.030 0.024 0.018 0.009 0.005 0.002 -0.000 -0.002 -0.002 -0.004 -0.005 -0.008 -0.013 -0.014 -0.016 -0.017 -0.019 -0.021 -0.023 -0.023 -0.023 -0.021 -0.020 -0.019 -0.020 -0.025 -0.030 -0.037 -0.041 -0.046 -0.050 -0.052 -0.056 -0.060 -0.063 -0.066 -0.068 -0.072 -0.073 -0.076 -0.078 -0.080 -0.081 -0.081 -0.081 -0.080 -0.080 -0.081 -0.082 -0.083 -0.083 -0.083 -0.084 -0.084 -0.084 -0.082 -0.077 -0.074 -0.071 -0.065 -0.058 -0.048 -0.042 -0.036 -0.033 -0.033 -0.032 -0.032 -0.031 -0.032 -0.031 -0.029 -0.029 -0.028 -0.024 -0.019 -0.017 -0.016 -0.015 -0.014 -0.011 -0.006 -0.004 -0.003 -0.001 0.004 0.009 0.012 0.015 0.020 0.039 0.057 0.066 0.054 0.026 0.001 -0.028 -0.028 -0.008 0.009 0.009 0.000
-0.024 -0.026 -0.025 -0.025 -0.025 -0.028 -0.032 -0.032 -0.033 -0.032 -0.032 -0.032 -0.032 -0.032 -0.033 -0.033 -0.033 -0.033 -0.033 -0.033 -0.032 -0.032 -0.032 -0.031 -0.030 -0.028 -0.024 -0.021 -0.019 -0.013 -0.006 -0.002 0.004 0.012 0.023 0.045 0.072 0.092 0.108 0.121 0.141 0.156 0.180 0.207 0.222 0.240 0.261 0.279 0.299 0.315 0.331 0.348 0.361 0.368 0.362 0.349 0.335 0.323 0.313 0.307 0.308 0.309 0.318 0.327 0.318 0.290 0.261 0.228 0.185 0.162 0.147 0.142 0.131 0.101 0.086 0.052 0.035 0.027 0.022 0.014 0.008 0.004 0.002 -0.001 -0.002 -0.004 -0.005 -0.007 -0.013 -0.014 -0.016 -0.017 -0.018 -0.022 -0.025 -0.025 -0.026 -0.025 -0.025 -0.025 -0.024 -0.025 -0.027 -0.031 -0.037 -0.041 -0.045 -0.049 -0.052 -0.055 -0.059 -0.062 -0.064 -0.067 -0.069 -0.072 -0.073 -0.076 -0.078 -0.079 -0.080 -0.080 -0.081 -0.081 -0.082 -0.083 -0.083 -0.083 -0.083 -0.083 -0.083 -0.082 -0.082 -0.079 -0.075 -0.070 -0.064 -0.051 -0.042 -0.030 -0.021 -0.026 -0.029 -0.031 -0.033 -0.036 -0.035 -0.033 -0.031 -0.029 -0.028 -0.024 -0.020 -0.016 -0.015 -0.014 -0.013 -0.011 -0.006 -0.004 -0.002 0.002 0.007 0.011 0.015 0.018 0.039 0.066 0.101 0.102 0.089 0.052 0.010 -0.018 -0.018 -0.003 0.011 0.011 0.001
-0.024 -0.026 -0.025 -0.026 -0.026 -0.029 -0.032 -0.033 -0.033 -0.032 -0.032 -0.032 -0.032 -0.032 -0.033 -0.033 -0.033 -0.033 -0.032 -0.032 -0.032 -0.032 -0.032 -0.032 -0.031 -0.029 -0.025 -0.022 -0.019 -0.016 -0.008 -0.002 0.004 0.012 0.019 0.035 0.056 0.080 0.096 0.111 0.136 0.154 0.190 0.221 0.237 0.257 0.279 0.299 0.319 0.340 0.356 0.371 0.387 0.393 0.382 0.363 0.335 0.325 0.321 0.310 0.314 0.320 0.337 0.344 0.336 0.318 0.271 0.228 0.185 0.166 0.152 0.142 0.132 0.098 0.085 0.052 0.034 0.026 0.020 0.013 0.008 0.003 0.001 -0.001 -0.002 -0.004 -0.006 -0.010 -0.014 -0.015 -0.017 -0.018 -0.019 -0.022 -0.025 -0.025 -0.026 -0.025 -0.025 -0.026 -0.026 -0.027 -0.029 -0.033 -0.038 -0.041 -0.045 -0.048 -0.051 -0.054 -0.058 -0.061 -0.063 -0.065 -0.068 -0.069 -0.071 -0.073 -0.076 -0.077 -0.079 -0.080 -0.081 -0.082 -0.082 -0.083 -0.083 -0.083 -0.083 -0.083 -0.082 -0.082 -0.081 -0.080 -0.076 -0.071 -0.060 -0.047 -0.037 -0.030 -0.021 -0.026 -0.029 -0.032 -0.038 -0.040 -0.038 -0.035 -0.031 -0.029 -0.027 -0.023 -0.019 -0.016 -0.014 -0.013 -0.012 -0.010 -0.006 -0.003 -0.001 0.003 0.006 0.009 0.016 0.024 0.052 0.099 0.127 0.127 0.110 0.069 0.030 -0.008 -0.008 0.002 0.015 0.015 0.003
-0.025 -0.027 -0.027 -0.027 -0.028 -0.030 -0.033 -0.033 -0.032 -0.032 -0.032 -0.032 -0.032 -0.032 -0.032 -0.032 -0.032 -0.031 -0.030 -0.030 -0.031 -0.032 -0.032 -0.031 -0.031 -0.029 -0.027 -0.024 -0.021 -0.016 -0.011 -0.004 0.004 0.012 0.018 0.026 0.045 0.065 0.083 0.099 0.127 0.160 0.201 0.236 0.254 0.274 0.296 0.319 0.340 0.357 0.378 0.398 0.405 0.401 0.394 0.368 0.340 0.327 0.324 0.324 0.325 0.327 0.343 0.344 0.342 0.318 0.279 0.230 0.185 0.158 0.146 0.136 0.122 0.098 0.077 0.045 0.031 0.020 0.015 0.009 0.006 0.003 0.001 -0.001 -0.004 -0.005 -0.007 -0.010 -0.013 -0.015 -0.017 -0.017 -0.018 -0.020 -0.022 -0.024 -0.024 -0.024 -0.025 -0.026 -0.026 -0.028 -0.030 -0.035 -0.038 -0.040 -0.043 -0.047 -0.050 -0.053 -0.057 -0.059 -0.061 -0.063 -0.065 -0.069 -0.069 -0.071 -0.072 -0.074 -0.076 -0.078 -0.080 -0.082 -0.082 -0.083 -0.083 -0.083 -0.083 -0.082 -0.082 -0.082 -0.081 -0.081 -0.078 -0.073 -0.063 -0.051 -0.043 -0.032 -0.026 -0.030 -0.032 -0.037 -0.041 -0.041 -0.041 -0.037 -0.032 -0.029 -0.025 -0.020 -0.016 -0.014 -0.013 -0.012 -0.011 -0.008 -0.005 -0.003 -0.001 0.002 0.004 0.008 0.012 0.024 0.049 0.100 0.127 0.127 0.116 0.079 0.038 0.006 0.006 0.011 0.020 0.020 0.005
-0.025 -0.027 -0.027 -0.028 -0.029 -0.031 -0.033 -0.033 -0.032 -0.032 -0.031 -0.031 -0.031 -0.032 -0.032 -0.031 -0.030 -0.028 -0.027 -0.028 -0.030 -0.030 -0.030 -0.030 -0.030 -0.029 -0.027 -0.026 -0.022 -0.016 -0.011 -0.005 0.003 0.010 0.016 0.022 0.035 0.049 0.066 0.084 0.116 0.164 0.208 0.246 0.271 0.290 0.311 0.332 0.357 0.378 0.398 0.409 0.415 0.407 0.396 0.359 0.343 0.336 0.327 0.325 0.325 0.324 0.337 0.342 0.326 0.312 0.278 0.219 0.181 0.148 0.140 0.129 0.116 0.088 0.054 0.033 0.022 0.018 0.013 0.008 0.005 0.003 0.002 -0.001 -0.004 -0.005 -0.009 -0.011 -0.013 -0.015 -0.017 -0.017 -0.018 -0.018 -0.019 -0.021 -0.022 -0.022 -0.023 -0.024 -0.026 -0.028 -0.031 -0.035 -0.038 -0.041 -0.042 -0.046 -0.049 -0.052 -0.056 -0.058 -0.059 -0.061 -0.064 -0.067 -0.069 -0.069 -0.069 -0.071 -0.073 -0.076 -0.078 -0.080 -0.081 -0.082 -0.083 -0.083 -0.083 -0.082 -0.082 -0.081 -0.081 -0.081 -0.079 -0.074 -0.067 -0.059 -0.049 -0.043 -0.039 -0.035 -0.039 -0.041 -0.042 -0.042 -0.042 -0.038 -0.032 -0.027 -0.021 -0.015 -0.011 -0.009 -0.009 -0.009 -0.007 -0.006 -0.004 -0.002 -0.001 0.000 0.003 0.006 0.008 0.021 0.049 0.090 0.118 0.125 0.116 0.093 0.038 0.009 0.009 0.015 0.023 0.023 0.006
-0.023 -0.027 -0.027 -0.028 -0.031 -0.032 -0.033 -0.033 -0.032 -0.031 -0.030 -0.030 -0.031 -0.032 -0.032 -0.031 -0.027 -0.027 -0.026 -0.026 -0.028 -0.030 -0.030 -0.030 -0.029 -0.029 -0.028 -0.027 -0.022 -0.017 -0.012 -0.005 0.000 0.007 0.015 0.020 0.028 0.038 0.051 0.067 0.110 0.162 0.215 0.250 0.287 0.306 0.324 0.346 0.368 0.389 0.407 0.412 0.415 0.405 0.380 0.353 0.340 0.336 0.327 0.325 0.323 0.322 0.324 0.322 0.314 0.284 0.249 0.215 0.181 0.148 0.134 0.124 0.094 0.076 0.039 0.029 0.021 0.017 0.012 0.007 0.004 0.002 0.001 -0.001 -0.003 -0.005 -0.009 -0.011 -0.013 -0.015 -0.016 -0.017 -0.018 -0.018 -0.019 -0.020 -0.021 -0.022 -0.022 -0.023 -0.024 -0.027 -0.030 -0.035 -0.038 -0.041 -0.043 -0.044 -0.047 -0.050 -0.054 -0.057 -0.058 -0.059 -0.061 -0.066 -0.067 -0.068 -0.068 -0.068 -0.068 -0.071 -0.073 -0.077 -0.079 -0.080 -0.081 -0.082 -0.083 -0.083 -0.082 -0.082 -0.081 -0.081 -0.081 -0.075 -0.072 -0.064 -0.058 -0.050 -0.045 -0.042 -0.040 -0.041 -0.041 -0.042 -0.042 -0.038 -0.033 -0.025 -0.015 -0.007 0.001 -0.001 -0.002 -0.003 -0.004 -0.003 -0.002 -0.002 -0.001 0.001 0.002 0.005 0.008 0.018 0.053 0.092 0.120 0.133 0.132 0.110 0.047 0.014 0.014 0.021 0.030 0.030 0.008
-0.023 -0.027 -0.027 -0.029 -0.031 -0.033 -0.033 -0.033 -0.032 -0.030 -0.029 -0.029 -0.029 -0.030 -0.030 -0.028 -0.027 -0.026 -0.026 -0.027 -0.027 -0.030 -0.030 -0.029 -0.029 -0.028 -0.028 -0.027 -0.023 -0.018 -0.013 -0.007 -0.004 0.002 0.009 0.015 0.021 0.029 0.038 0.061 0.101 0.157 0.216 0.259 0.289 0.311 0.333 0.357 0.380 0.397 0.404 0.409 0.405 0.380 0.355 0.347 0.343 0.336 0.329 0.326 0.323 0.320 0.322 0.313 0.283 0.249 0.234 0.218 0.187 0.153 0.126 0.105 0.083 0.055 0.038 0.030 0.021 0.018 0.013 0.007 0.003 0.002 0.001 -0.001 -0.003 -0.006 -0.008 -0.010 -0.012 -0.015 -0.016 -0.016 -0.017 -0.018 -0.018 -0.019 -0.020 -0.021 -0.022 -0.024 -0.025 -0.026 -0.029 -0.034 -0.038 -0.041 -0.043 -0.043 -0.046 -0.049 -0.052 -0.055 -0.057 -0.058 -0.060 -0.064 -0.067 -0.068 -0.068 -0.067 -0.067 -0.067 -0.067 -0.071 -0.075 -0.079 -0.080 -0.081 -0.083 -0.083 -0.083 -0.082 -0.082 -0.081 -0.081 -0.078 -0.074 -0.069 -0.062 -0.055 -0.048 -0.044 -0.040 -0.039 -0.039 -0.041 -0.039 -0.037 -0.032 -0.023 -0.011 0.003 0.008 0.007 0.002 -0.001 -0.002 -0.002 -0.002 -0.001 -0.000 0.002 0.004 0.007 0.010 0.026 0.059 0.118 0.133 0.141 0.134 0.122 0.057 0.018 0.018 0.027 0.035 0.035 0.010
-0.022 -0.027 -0.027 -0.029 -0.031 -0.032 -0.033 -0.033 -0.031 -0.029 -0.028 -0.028 -0.028 -0.028 -0.027 -0.027 -0.027 -0.026 -0.026 -0.027 -0.027 -0.029 -0.029 -0.028 -0.028 -0.028 -0.028 -0.028 -0.024 -0.019 -0.013 -0.008 -0.005 -0.001 0.003 0.009 0.015 0.023 0.038 0.053 0.092 0.150 0.210 0.255 0.288 0.314 0.336 0.360 0.377 0.388 0.397 0.400 0.379 0.360 0.355 0.347 0.346 0.340 0.333 0.330 0.323 0.317 0.313 0.283 0.255 0.241 0.237 0.223 0.212 0.163 0.117 0.094 0.072 0.050 0.038 0.030 0.022 0.018 0.013 0.007 0.002 0.001 0.000 -0.001 -0.002 -0.005 -0.007 -0.009 -0.011 -0.014 -0.015 -0.016 -0.016 -0.017 -0.018 -0.018 -0.019 -0.022 -0.023 -0.024 -0.025 -0.026 -0.027 -0.031 -0.037 -0.041 -0.043 -0.043 -0.044 -0.047 -0.051 -0.054 -0.056 -0.058 -0.059 -0.063 -0.067 -0.068 -0.068 -0.067 -0.067 -0.057 -0.051 -0.060 -0.071 -0.076 -0.079 -0.081 -0.083 -0.084 -0.084 -0.084 -0.083 -0.083 -0.082 -0.080 -0.076 -0.073 -0.068 -0.059 -0.050 -0.046 -0.040 -0.034 -0.033 -0.036 -0.036 -0.036 -0.033 -0.024 -0.009 0.008 0.010 0.010 0.006 0.001 -0.000 -0.001 -0.001 0.001 0.003 0.004 0.006 0.010 0.013 0.051 0.118 0.148 0.176 0.189 0.171 0.132 0.071 0.022 0.022 0.030 0.041 0.041 0.012
-0.022 -0.027 -0.027 -0.029 -0.030 -0.031 -0.031 -0.030 -0.028 -0.027 -0.026 -0.026 -0.026 -0.025 -0.024 -0.024 -0.024 -0.024 -0.025 -0.026 -0.026 -0.028 -0.028 -0.028 -0.028 -0.029 -0.029 -0.028 -0.024 -0.019 -0.013 -0.010 -0.007 -0.004 0.000 0.005 0.010 0.022 0.033 0.051 0.083 0.134 0.192 0.241 0.274 0.305 0.330 0.349 0.372 0.377 0.378 0.368 0.358 0.355 0.355 0.355 0.347 0.342 0.330 0.330 0.322 0.310 0.294 0.274 0.261 0.248 0.241 0.227 0.215 0.187 0.125 0.090 0.068 0.053 0.039 0.030 0.024 0.021 0.014 0.007 0.001 0.001 -0.000 -0.000 -0.000 -0.003 -0.005 -0.007 -0.009 -0.010 -0.013 -0.014 -0.014 -0.016 -0.017 -0.018 -0.019 -0.021 -0.024 -0.024 -0.025 -0.026 -0.026 -0.030 -0.036 -0.040 -0.042 -0.043 -0.044 -0.046 -0.050 -0.053 -0.055 -0.057 -0.058 -0.062 -0.066 -0.069 -0.069 -0.068 -0.064 -0.049 -0.049 -0.051 -0.066 -0.075 -0.079 -0.081 -0.084 -0.084 -0.085 -0.085 -0.085 -0.084 -0.083 -0.081 -0.077 -0.075 -0.072 -0.064 -0.054 -0.047 -0.037 -0.033 -0.033 -0.033 -0.036 -0.037 -0.036 -0.027 -0.013 0.002 0.009 0.009 0.007 0.004 0.001 0.001 0.002 0.003 0.004 0.006 0.010 0.012 0.041 0.110 0.148 0.176 0.222 0.225 0.206 0.154 0.088 0.030 0.030 0.030 0.041 0.041 0.014
-0.022 -0.027 -0.027 -0.029 -0.029 -0.029 -0.029 -0.027 -0.025 -0.025 -0.025 -0.025 -0.026 -0.025 -0.024 -0.024 -0.024 -0.024 -0.024 -0.024 -0.025 -0.025 -0.026 -0.026 -0.027 -0.028 -0.028 -0.028 -0.024 -0.020 -0.015 -0.012 -0.009 -0.007 -0.001 0.004 0.007 0.014 0.031 0.052 0.077 0.121 0.183 0.225 0.249 0.274 0.305 0.332 0.347 0.354 0.343 0.344 0.347 0.353 0.359 0.361 0.356 0.346 0.334 0.330 0.321 0.306 0.277 0.269 0.266 0.263 0.261 0.248 0.220 0.192 0.131 0.091 0.072 0.053 0.040 0.033 0.024 0.022 0.017 0.008 0.002 0.001 0.000 0.001 0.002 0.001 -0.000 -0.003 -0.006 -0.007 -0.010 -0.013 -0.014 -0.015 -0.016 -0.018 -0.019 -0.021 -0.022 -0.024 -0.025 -0.026 -0.026 -0.030 -0.035 -0.039 -0.042 -0.043 -0.043 -0.044 -0.049 -0.052 -0.054 -0.056 -0.058 -0.060 -0.065 -0.069 -0.070 -0.070 -0.066 -0.052 -0.049 -0.054 -0.065 -0.073 -0.079 -0.083 -0.084 -0.086 -0.087 -0.086 -0.086 -0.085 -0.084 -0.080 -0.077 -0.075 -0.072 -0.070 -0.059 -0.048 -0.040 -0.033 -0.033 -0.036 -0.038 -0.039 -0.038 -0.031 -0.019 -0.006 0.004 0.007 0.006 0.005 0.003 0.003 0.003 0.005 0.006 0.008 0.011 0.019 0.079 0.126 0.176 0.222 0.259 0.258 0.229 0.158 0.088 0.028 0.028 0.040 0.051 0.051 0.015
-0.022 -0.026 -0.026 -0.029 -0.029 -0.029 -0.028 -0.025 -0.025 -0.025 -0.025 -0.025 -0.025 -0.025 -0.024 -0.024 -0.024 -0.023 -0.022 -0.023 -0.023 -0.024 -0.024 -0.025 -0.026 -0.026 -0.027 -0.026 -0.024 -0.021 -0.015 -0.015 -0.011 -0.008 -0.003 0.002 0.006 0.011 0.029 0.052 0.077 0.120 0.157 0.195 0.228 0.255 0.280 0.307 0.324 0.330 0.336 0.337 0.340 0.343 0.359 0.361 0.355 0.344 0.331 0.321 0.309 0.285 0.280 0.278 0.285 0.295 0.289 0.267 0.229 0.192 0.146 0.100 0.076 0.061 0.047 0.032 0.023 0.022 0.017 0.010 0.005 0.003 0.003 0.003 0.004 0.006 0.008 0.005 0.002 -0.001 -0.007 -0.010 -0.013 -0.014 -0.017 -0.019 -0.020 -0.021 -0.021 -0.022 -0.024 -0.025 -0.026 -0.030 -0.035 -0.038 -0.041 -0.043 -0.043 -0.044 -0.048 -0.051 -0.053 -0.056 -0.058 -0.060 -0.064 -0.068 -0.069 -0.069 -0.066 -0.062 -0.057 -0.061 -0.067 -0.075 -0.079 -0.083 -0.085 -0.087 -0.088 -0.088 -0.087 -0.086 -0.084 -0.080 -0.076 -0.073 -0.072 -0.071 -0.067 -0.058 -0.048 -0.042 -0.040 -0.042 -0.042 -0.043 -0.041 -0.037 -0.028 -0.016 -0.006 0.005 0.005 0.005 0.005 0.005 0.005 0.006 0.006 0.007 0.013 0.029 0.097 0.141 0.200 0.262 0.262 0.261 0.247 0.176 0.088 0.026 0.026 0.039 0.049 0.049 0.009
-0.022 -0.025 -0.025 -0.028 -0.029 -0.029 -0.028 -0.026 -0.025 -0.025 -0.026 -0.025 -0.026 -0.026 -0.026 -0.026 -0.024 -0.023 -0.020 -0.020 -0.021 -0.023 -0.023 -0.024 -0.024 -0.025 -0.025 -0.025 -0.023 -0.022 -0.016 -0.015 -0.012 -0.010 -0.003 0.003 0.006 0.010 0.029 0.052 0.078 0.111 0.149 0.175 0.198 0.231 0.257 0.290 0.314 0.328 0.331 0.336 0.339 0.341 0.347 0.353 0.342 0.331 0.316 0.306 0.291 0.282 0.280 0.285 0.295 0.298 0.298 0.288 0.257 0.195 0.155 0.114 0.091 0.070 0.048 0.033 0.024 0.022 0.017 0.013 0.009 0.007 0.008 0.008 0.011 0.017 0.025 0.025 0.012 0.002 -0.002 -0.009 -0.013 -0.016 -0.018 -0.019 -0.020 -0.021 -0.021 -0.022 -0.023 -0.024 -0.026 -0.031 -0.035 -0.038 -0.040 -0.042 -0.043 -0.044 -0.046 -0.050 -0.052 -0.054 -0.057 -0.059 -0.063 -0.066 -0.069 -0.069 -0.069 -0.066 -0.066 -0.067 -0.070 -0.077 -0.079 -0.082 -0.085 -0.088 -0.088 -0.088 -0.088 -0.086 -0.082 -0.079 -0.075 -0.072 -0.072 -0.070 -0.069 -0.064 -0.058 -0.052 -0.050 -0.050 -0.049 -0.047 -0.046 -0.042 -0.036 -0.026 -0.013 0.001 0.005 0.005 0.006 0.006 0.006 0.006 0.007 0.008 0.012 0.046 0.100 0.161 0.231 0.264 0.264 0.264 0.247 0.175 0.085 0.021 0.021 0.034 0.046 0.046 0.009
-0.022 -0.025 -0.025 -0.027 -0.029 -0.029 -0.029 -0.028 -0.026 -0.026 -0.026 -0.025 -0.025 -0.026 -0.027 -0.026 -0.025 -0.022 -0.018 -0.016 -0.016 -0.017 -0.019 -0.017 -0.019 -0.019 -0.023 -0.024 -0.023 -0.022 -0.018 -0.015 -0.013 -0.009 -0.003 0.003 0.006 0.011 0.026 0.049 0.078 0.110 0.135 0.168 0.195 0.221 0.248 0.276 0.308 0.324 0.331 0.338 0.341 0.341 0.341 0.341 0.334 0.316 0.306 0.294 0.277 0.277 0.280 0.288 0.296 0.298 0.298 0.287 0.261 0.195 0.156 0.122 0.108 0.079 0.048 0.033 0.024 0.022 0.015 0.014 0.013 0.009 0.009 0.011 0.016 0.026 0.040 0.040 0.025 0.006 0.000 -0.008 -0.013 -0.017 -0.019 -0.020 -0.021 -0.021 -0.022 -0.022 -0.022 -0.023 -0.026 -0.031 -0.035 -0.036 -0.039 -0.042 -0.043 -0.043 -0.044 -0.049 -0.051 -0.053 -0.055 -0.058 -0.061 -0.065 -0.068 -0.069 -0.070 -0.070 -0.069 -0.070 -0.072 -0.076 -0.078 -0.081 -0.084 -0.087 -0.089 -0.089 -0.088 -0.087 -0.083 -0.079 -0.073 -0.070 -0.070 -0.070 -0.069 -0.068 -0.063 -0.059 -0.057 -0.053 -0.052 -0.050 -0.048 -0.045 -0.038 -0.029 -0.015 -0.003 0.005 0.006 0.010 0.010 0.008 0.008 0.008 0.009 0.015 0.046 0.100 0.177 0.250 0.266 0.266 0.263 0.244 0.179 0.068 0.021 0.021 0.034 0.043 0.043 0.009
-0.022 -0.026 -0.026 -0.027 -0.029 -0.029 -0.029 -0.029 -0.028 -0.027 -0.026 -0.024 -0.024 -0.024 -0.026 -0.026 -0.023 -0.019 -0.017 -0.016 -0.015 -0.014 -0.004 -0.007 -0.009 -0.013 -0.017 -0.023 -0.023 -0.022 -0.019 -0.015 -0.013 -0.010 -0.005 0.002 0.006 0.011 0.027 0.053 0.080 0.109 0.135 0.163 0.186 0.214 0.242 0.274 0.308 0.330 0.341 0.344 0.341 0.340 0.337 0.329 0.315 0.301 0.289 0.278 0.271 0.271 0.274 0.285 0.293 0.296 0.294 0.281 0.253 0.201 0.151 0.122 0.109 0.088 0.054 0.035 0.024 0.020 0.015 0.013 0.012 0.010 0.011 0.013 0.019 0.026 0.040 0.040 0.025 0.008 -0.001 -0.009 -0.013 -0.017 -0.019 -0.020 -0.022 -0.022 -0.023 -0.023 -0.023 -0.023 -0.026 -0.030 -0.033 -0.036 -0.038 -0.041 -0.042 -0.043 -0.044 -0.048 -0.050 -0.052 -0.054 -0.056 -0.059 -0.063 -0.067 -0.069 -0.070 -0.071 -0.070 -0.071 -0.074 -0.076 -0.077 -0.079 -0.082 -0.086 -0.089 -0.089 -0.089 -0.087 -0.085 -0.081 -0.073 -0.069 -0.068 -0.068 -0.069 -0.069 -0.066 -0.062 -0.059 -0.056 -0.053 -0.051 -0.048 -0.045 -0.039 -0.032 -0.019 0.001 0.009 0.017 0.020 0.017 0.015 0.012 0.010 0.012 0.019 0.044 0.107 0.185 0.250 0.265 0.265 0.260 0.243 0.172 0.063 0.019 0.019 0.031 0.039 0.039 0.009
-0.022 -0.026 -0.026 -0.028 -0.029 -0.029 -0.029 -0.029 -0.028 -0.027 -0.026 -0.023 -0.023 -0.023 -0.023 -0.024 -0.022 -0.020 -0.018 -0.016 -0.014 0.008 0.015 0.010 -0.003 -0.009 -0.015 -0.021 -0.023 -0.023 -0.022 -0.017 -0.014 -0.011 -0.006 0.002 0.007 0.013 0.030 0.055 0.079 0.106 0.133 0.162 0.188 0.215 0.243 0.270 0.302 0.325 0.341 0.344 0.341 0.339 0.329 0.313 0.291 0.279 0.264 0.253 0.250 0.245 0.237 0.261 0.285 0.290 0.281 0.266 0.240 0.186 0.145 0.118 0.103 0.080 0.053 0.035 0.024 0.020 0.016 0.014 0.013 0.012 0.012 0.013 0.017 0.023 0.026 0.027 0.016 0.005 -0.004 -0.010 -0.013 -0.016 -0.019 -0.020 -0.022 -0.023 -0.023 -0.023 -0.023 -0.023 -0.024 -0.027 -0.031 -0.033 -0.036 -0.038 -0.041 -0.042 -0.043 -0.045 -0.049 -0.051 -0.052 -0.054 -0.058 -0.062 -0.066 -0.068 -0.070 -0.071 -0.071 -0.071 -0.074 -0.076 -0.076 -0.078 -0.080 -0.084 -0.087 -0.088 -0.088 -0.087 -0.087 -0.081 -0.074 -0.068 -0.067 -0.067 -0.067 -0.067 -0.066 -0.063 -0.060 -0.058 -0.055 -0.052 -0.048 -0.045 -0.039 -0.031 -0.015 0.009 0.028 0.039 0.041 0.037 0.030 0.022 0.016 0.016 0.023 0.043 0.094 0.168 0.233 0.261 0.261 0.255 0.243 0.188 0.063 0.013 0.013 0.031 0.041 0.041 0.012
-0.022 -0.027 -0.027 -0.028 -0.030 -0.030 -0.030 -0.029 -0.028 -0.027 -0.027 -0.025 -0.024 -0.023 -0.023 -0.023 -0.022 -0.021 -0.019 -0.017 -0.011 0.016 0.019 0.019 0.007 -0.006 -0.013 -0.022 -0.024 -0.025 -0.023 -0.019 -0.016 -0.013 -0.008 0.001 0.006 0.015 0.033 0.056 0.078 0.105 0.131 0.160 0.189 0.217 0.241 0.268 0.292 0.309 0.326 0.329 0.326 0.318 0.308 0.289 0.279 0.267 0.255 0.243 0.231 0.229 0.229 0.228 0.237 0.245 0.254 0.240 0.188 0.153 0.129 0.110 0.088 0.074 0.049 0.033 0.023 0.019 0.016 0.014 0.012 0.012 0.011 0.012 0.014 0.017 0.019 0.016 0.008 0.001 -0.004 -0.008 -0.012 -0.015 -0.018 -0.020 -0.021 -0.022 -0.023 -0.023 -0.023 -0.023 -0.023 -0.024 -0.028 -0.031 -0.033 -0.034 -0.038 -0.040 -0.042 -0.043 -0.048 -0.050 -0.052 -0.054 -0.055 -0.060 -0.063 -0.068 -0.069 -0.070 -0.071 -0.072 -0.074 -0.075 -0.076 -0.076 -0.078 -0.081 -0.085 -0.087 -0.087 -0.087 -0.086 -0.082 -0.076 -0.069 -0.066 -0.066 -0.065 -0.066 -0.065 -0.064 -0.061 -0.058 -0.055 -0.051 -0.048 -0.043 -0.039 -0.030 -0.008 0.024 0.049 0.058 0.062 0.057 0.049 0.039 0.026 0.026 0.026 0.043 0.084 0.140 0.186 0.233 0.253 0.243 0.225 0.199 0.061 0.014 0.014 0.031 0.043 0.043 0.015
-0.022 -0.027 -0.027 -0.029 -0.030 -0.030 -0.030 -0.029 -0.029 -0.028 -0.028 -0.027 -0.026 -0.023 -0.022 -0.022 -0.022 -0.021 -0.019 -0.018 -0.017 0.015 0.020 0.020 0.008 -0.006 -0.015 -0.022 -0.026 -0.026 -0.026 -0.022 -0.019 -0.016 -0.011 -0.001 0.005 0.017 0.034 0.054 0.078 0.103 0.129 0.158 0.187 0.213 0.240 0.264 0.277 0.287 0.294 0.301 0.296 0.293 0.289 0.283 0.273 0.263 0.252 0.235 0.227 0.226 0.221 0.211 0.204 0.201 0.181 0.167 0.152 0.129 0.110 0.092 0.074 0.059 0.046 0.030 0.022 0.019 0.016 0.015 0.013 0.012 0.012 0.012 0.012 0.013 0.013 0.010 0.005 0.001 -0.003 -0.008 -0.011 -0.014 -0.016 -0.019 -0.021 -0.022 -0.022 -0.022 -0.022 -0.017 -0.012 -0.015 -0.020 -0.027 -0.029 -0.031 -0.034 -0.038 -0.040 -0.041 -0.044 -0.049 -0.050 -0.052 -0.054 -0.058 -0.062 -0.066 -0.068 -0.069 -0.070 -0.071 -0.073 -0.074 -0.075 -0.076 -0.076 -0.078 -0.081 -0.085 -0.086 -0.086 -0.085 -0.080 -0.074 -0.068 -0.065 -0.061 -0.062 -0.064 -0.064 -0.063 -0.061 -0.058 -0.055 -0.050 -0.047 -0.041 -0.036 -0.026 0.001 0.036 0.060 0.072 0.078 0.073 0.066 0.055 0.041 0.028 0.035 0.053 0.077 0.117 0.156 0.186 0.219 0.221 0.212 0.166 0.076 0.019 0.019 0.034 0.045 0.045 0.017
-0.022 -0.027 -0.027 -0.029 -0.031 -0.031 -0.030 -0.029 -0.028 -0.028 -0.028 -0.028 -0.026 -0.024 -0.023 -0.022 -0.022 -0.021 -0.020 -0.019 -0.018 -0.008 0.011 0.008 0.001 -0.013 -0.019 -0.022 -0.026 -0.027 -0.027 -0.025 -0.021 -0.017 -0.013 -0.002 0.008 0.021 0.036 0.054 0.078 0.100 0.127 0.158 0.186 0.211 0.237 0.258 0.272 0.277 0.280 0.280 0.282 0.285 0.282 0.282 0.275 0.264 0.249 0.229 0.226 0.221 0.211 0.202 0.179 0.161 0.126 0.119 0.118 0.105 0.095 0.076 0.060 0.053 0.041 0.026 0.021 0.019 0.016 0.015 0.014 0.013 0.012 0.011 0.011 0.011 0.011 0.007 0.004 0.001 -0.002 -0.005 -0.008 -0.011 -0.014 -0.016 -0.018 -0.019 -0.020 -0.019 -0.015 0.007 0.022 0.013 -0.011 -0.020 -0.025 -0.029 -0.032 -0.036 -0.037 -0.039 -0.041 -0.044 -0.049 -0.050 -0.053 -0.056 -0.060 -0.063 -0.066 -0.067 -0.069 -0.070 -0.071 -0.073 -0.074 -0.075 -0.075 -0.075 -0.075 -0.077 -0.079 -0.080 -0.078 -0.075 -0.070 -0.063 -0.060 -0.059 -0.060 -0.061 -0.062 -0.062 -0.061 -0.058 -0.056 -0.050 -0.046 -0.040 -0.032 -0.018 0.012 0.045 0.068 0.083 0.088 0.090 0.081 0.068 0.055 0.046 0.052 0.071 0.088 0.104 0.140 0.162 0.167 0.177 0.180 0.166 0.108 0.026 0.026 0.034 0.049 0.049 0.020
-0.023 -0.028 -0.028 -0.030 -0.031 -0.031 -0.030 -0.028 -0.028 -0.028 -0.028 -0.028 -0.027 -0.026 -0.024 -0.022 -0.022 -0.021 -0.020 -0.019 -0.019 -0.017 -0.013 -0.007 -0.013 -0.017 -0.020 -0.021 -0.027 -0.028 -0.028 -0.026 -0.022 -0.018 -0.011 0.002 0.014 0.028 0.039 0.057 0.078 0.100 0.127 0.158 0.185 0.210 0.235 0.253 0.265 0.271 0.272 0.273 0.276 0.278 0.278 0.278 0.272 0.267 0.240 0.225 0.215 0.205 0.203 0.179 0.161 0.104 0.085 0.085 0.085 0.085 0.081 0.058 0.048 0.043 0.032 0.022 0.020 0.019 0.017 0.016 0.015 0.013 0.012 0.011 0.011 0.010 0.010 0.005 0.003 0.001 -0.001 -0.003 -0.005 -0.007 -0.009 -0.012 -0.014 -0.015 -0.016 -0.013 -0.001 0.028 0.031 0.024 0.003 -0.013 -0.022 -0.026 -0.029 -0.034 -0.036 -0.036 -0.037 -0.037 -0.042 -0.046 -0.049 -0.053 -0.058 -0.061 -0.064 -0.066 -0.067 -0.069 -0.070 -0.071 -0.071 -0.072 -0.072 -0.070 -0.069 -0.065 -0.063 -0.065 -0.065 -0.061 -0.058 -0.056 -0.053 -0.055 -0.057 -0.060 -0.061 -0.061 -0.060 -0.057 -0.054 -0.049 -0.044 -0.038 -0.028 -0.010 0.019 0.047 0.072 0.088 0.099 0.103 0.103 0.099 0.092 0.078 0.088 0.093 0.095 0.105 0.127 0.151 0.162 0.165 0.167 0.163 0.105 0.034 0.034 0.046 0.053 0.053 0.023
-0.023 -0.029 -0.029 -0.031 -0.031 -0.031 -0.028 -0.027 -0.027 -0.027 -0.028 -0.028 -0.027 -0.026 -0.025 -0.024 -0.022 -0.022 -0.021 -0.021 -0.020 -0.019 -0.018 -0.017 -0.018 -0.019 -0.020 -0.021 -0.026 -0.027 -0.027 -0.025 -0.021 -0.015 -0.008 0.004 0.017 0.029 0.042 0.057 0.078 0.101 0.128 0.158 0.185 0.208 0.232 0.251 0.258 0.261 0.265 0.267 0.267 0.267 0.275 0.275 0.267 0.253 0.219 0.206 0.203 0.189 0.189 0.161 0.124 0.082 0.073 0.070 0.073 0.068 0.050 0.043 0.038 0.034 0.023 0.020 0.020 0.019 0.018 0.017 0.015 0.014 0.012 0.011 0.011 0.010 0.009 0.005 0.003 0.001 -0.000 -0.002 -0.003 -0.003 -0.005 -0.007 -0.009 -0.011 -0.010 -0.007 0.013 0.039 0.039 0.035 0.011 -0.009 -0.019 -0.023 -0.026 -0.030 -0.033 -0.035 -0.034 -0.029 -0.034 -0.037 -0.046 -0.049 -0.055 -0.059 -0.062 -0.064 -0.065 -0.067 -0.068 -0.069 -0.069 -0.068 -0.066 -0.061 -0.054 -0.052 -0.045 -0.044 -0.043 -0.043 -0.045 -0.045 -0.047 -0.049 -0.055 -0.057 -0.060 -0.060 -0.058 -0.056 -0.053 -0.047 -0.041 -0.034 -0.023 -0.004 0.024 0.049 0.072 0.095 0.105 0.110 0.132 0.150 0.152 0.157 0.154 0.124 0.104 0.116 0.126 0.146 0.160 0.162 0.163 0.149 0.102 0.044 0.044 0.048 0.053 0.053 0.020
-0.023 -0.030 -0.030 -0.030 -0.031 -0.029 -0.028 -0.027 -0.026 -0.026 -0.025 -0.025 -0.025 -0.026 -0.025 -0.025 -0.024 -0.022 -0.022 -0.022 -0.022 -0.022 -0.021 -0.021 -0.020 -0.019 -0.020 -0.021 -0.023 -0.025 -0.025 -0.024 -0.018 -0.011 -0.003 0.008 0.020 0.033 0.044 0.057 0.076 0.098 0.126 0.156 0.185 0.208 0.232 0.250 0.257 0.258 0.257 0.256 0.248 0.247 0.254 0.259 0.253 0.249 0.215 0.202 0.186 0.179 0.173 0.155 0.094 0.073 0.066 0.062 0.060 0.057 0.040 0.035 0.030 0.023 0.020 0.019 0.019 0.018 0.018 0.017 0.016 0.014 0.011 0.010 0.010 0.010 0.007 0.004 0.003 0.001 -0.001 -0.003 -0.003 -0.003 -0.004 -0.004 -0.005 -0.006 -0.006 -0.002 0.002 0.028 0.031 0.023 0.001 -0.009 -0.017 -0.023 -0.025 -0.029 -0.029 -0.029 -0.014 -0.007 -0.020 -0.032 -0.039 -0.048 -0.054 -0.057 -0.060 -0.062 -0.064 -0.065 -0.067 -0.067 -0.067 -0.065 -0.061 -0.056 -0.052 -0.045 -0.040 -0.026 -0.020 -0.025 -0.029 -0.036 -0.038 -0.042 -0.047 -0.054 -0.056 -0.057 -0.056 -0.053 -0.051 -0.046 -0.039 -0.030 -0.021 -0.001 0.024 0.048 0.069 0.094 0.120 0.140 0.155 0.161 0.164 0.176 0.185 0.162 0.157 0.129 0.128 0.128 0.148 0.157 0.157 0.141 0.109 0.048 0.048 0.049 0.051 0.051 0.016
-0.024 -0.031 -0.030 -0.031 -0.031 -0.028 -0.027 -0.026 -0.026 -0.026 -0.025 -0.025 -0.024 -0.025 -0.026 -0.026 -0.025 -0.024 -0.023 -0.023 -0.023 -0.023 -0.023 -0.022 -0.021 -0.020 -0.020 -0.021 -0.022 -0.025 -0.025 -0.023 -0.017 -0.007 0.003 0.014 0.022 0.033 0.041 0.053 0.072 0.094 0.122 0.152 0.182 0.206 0.231 0.250 0.253 0.254 0.253 0.238 0.232 0.222 0.232 0.245 0.237 0.226 0.191 0.178 0.172 0.164 0.160 0.141 0.079 0.061 0.056 0.053 0.052 0.037 0.029 0.024 0.021 0.018 0.017 0.018 0.018 0.018 0.018 0.017 0.015 0.012 0.011 0.010 0.009 0.007 0.005 0.003 0.001 0.001 -0.001 -0.003 -0.003 -0.003 -0.004 -0.004 -0.004 -0.004 -0.004 -0.003 0.000 0.008 0.021 0.008 -0.003 -0.011 -0.019 -0.024 -0.026 -0.026 -0.026 -0.023 -0.002 -0.002 -0.007 -0.028 -0.036 -0.046 -0.051 -0.055 -0.058 -0.061 -0.062 -0.064 -0.065 -0.065 -0.065 -0.064 -0.061 -0.056 -0.048 -0.041 -0.018 0.002 0.012 0.004 -0.013 -0.025 -0.032 -0.036 -0.043 -0.050 -0.053 -0.053 -0.053 -0.051 -0.050 -0.045 -0.037 -0.027 -0.018 -0.002 0.019 0.041 0.061 0.093 0.133 0.151 0.157 0.164 0.173 0.184 0.185 0.169 0.162 0.157 0.132 0.128 0.139 0.140 0.140 0.130 0.121 0.080 0.069 0.054 0.051 0.048 0.011
-0.023 -0.031 -0.030 -0.031 -0.031 -0.028 -0.028 -0.027 -0.026 -0.025 -0.024 -0.024 -0.024 -0.025 -0.026 -0.026 -0.026 -0.025 -0.024 -0.024 -0.024 -0.024 -0.024 -0.024 -0.022 -0.021 -0.021 -0.021 -0.022 -0.024 -0.024 -0.021 -0.015 -0.005 0.007 0.013 0.020 0.031 0.040 0.050 0.067 0.089 0.116 0.146 0.175 0.201 0.223 0.240 0.249 0.246 0.232 0.217 0.212 0.209 0.208 0.215 0.207 0.186 0.159 0.139 0.139 0.135 0.132 0.096 0.066 0.052 0.051 0.047 0.036 0.026 0.021 0.019 0.016 0.015 0.015 0.014 0.014 0.015 0.015 0.014 0.012 0.009 0.008 0.007 0.006 0.004 0.004 0.002 0.001 -0.001 -0.002 -0.003 -0.003 -0.004 -0.005 -0.005 -0.005 -0.004 -0.004 -0.004 -0.001 0.000 0.002 -0.000 -0.008 -0.013 -0.021 -0.024 -0.025 -0.025 -0.024 -0.018 -0.004 -0.004 -0.013 -0.027 -0.036 -0.045 -0.051 -0.053 -0.055 -0.059 -0.061 -0.062 -0.064 -0.065 -0.065 -0.065 -0.061 -0.056 -0.048 -0.035 0.005 0.026 0.038 0.027 0.005 -0.013 -0.027 -0.033 -0.039 -0.045 -0.050 -0.051 -0.051 -0.050 -0.048 -0.043 -0.035 -0.027 -0.018 -0.004 0.015 0.037 0.057 0.092 0.130 0.144 0.154 0.160 0.160 0.176 0.188 0.182 0.169 0.163 0.135 0.126 0.121 0.128 0.130 0.130 0.129 0.103 0.085 0.074 0.055 0.044 0.007
-0.023 -0.031 -0.030 -0.032 -0.032 -0.031 -0.029 -0.028 -0.027 -0.026 -0.025 -0.024 -0.024 -0.026 -0.027 -0.027 -0.027 -0.027 -0.026 -0.025 -0.025 -0.025 -0.024 -0.024 -0.023 -0.021 -0.021 -0.022 -0.024 -0.024 -0.024 -0.020 -0.012 -0.004 0.009 0.013 0.016 0.022 0.032 0.042 0.061 0.083 0.109 0.138 0.168 0.195 0.212 0.224 0.234 0.227 0.212 0.208 0.205 0.201 0.199 0.192 0.189 0.155 0.122 0.121 0.105 0.101 0.084 0.066 0.049 0.047 0.028 0.026 0.022 0.019 0.017 0.015 0.014 0.011 0.010 0.009 0.008 0.008 0.007 0.006 0.004 0.003 0.002 0.002 0.002 0.001 0.000 0.000 -0.001 -0.002 -0.002 -0.003 -0.003 -0.005 -0.005 -0.005 -0.005 -0.004 -0.004 -0.004 -0.002 -0.002 -0.003 -0.007 -0.011 -0.016 -0.021 -0.023 -0.024 -0.024 -0.022 -0.020 -0.015 -0.013 -0.016 -0.030 -0.037 -0.045 -0.050 -0.051 -0.054 -0.056 -0.059 -0.062 -0.063 -0.065 -0.065 -0.066 -0.064 -0.060 -0.049 -0.024 0.014 0.046 0.049 0.041 0.022 -0.006 -0.021 -0.031 -0.039 -0.043 -0.045 -0.049 -0.049 -0.048 -0.046 -0.041 -0.033 -0.028 -0.020 -0.006 0.009 0.023 0.043 0.072 0.124 0.141 0.149 0.157 0.159 0.180 0.202 0.185 0.182 0.169 0.135 0.120 0.113 0.113 0.129 0.136 0.136 0.128 0.099 0.085 0.060 0.040 0.003
-0.022 -0.029 -0.029 -0.032 -0.032 -0.032 -0.031 -0.029 -0.028 -0.027 -0.026 -0.026 -0.026 -0.028 -0.029 -0.029 -0.029 -0.029 -0.028 -0.027 -0.026 -0.025 -0.025 -0.024 -0.024 -0.024 -0.023 -0.025 -0.025 -0.025 -0.024 -0.020 -0.010 0.000 0.010 0.013 0.013 0.016 0.024 0.036 0.054 0.076 0.102 0.130 0.159 0.185 0.198 0.210 0.212 0.209 0.206 0.204 0.202 0.199 0.190 0.185 0.162 0.136 0.121 0.099 0.089 0.066 0.045 0.029 0.023 0.021 0.020 0.019 0.018 0.016 0.013 0.011 0.010 0.007 0.005 0.004 0.003 0.002 0.001 -0.000 -0.002 -0.002 -0.002 -0.002 -0.002 -0.001 -0.001 -0.001 -0.002 -0.002 -0.003 -0.003 -0.003 -0.005 -0.005 -0.005 -0.005 -0.005 -0.004 -0.004 -0.004 -0.004 -0.006 -0.009 -0.013 -0.019 -0.021 -0.022 -0.022 -0.022 -0.022 -0.021 -0.021 -0.019 -0.025 -0.029 -0.037 -0.043 -0.048 -0.051 -0.052 -0.054 -0.058 -0.062 -0.063 -0.065 -0.066 -0.066 -0.066 -0.063 -0.051 -0.027 0.014 0.055 0.057 0.052 0.032 0.004 -0.016 -0.030 -0.039 -0.043 -0.044 -0.045 -0.045 -0.045 -0.043 -0.037 -0.032 -0.028 -0.020 -0.010 0.002 0.014 0.026 0.056 0.112 0.127 0.142 0.155 0.177 0.221 0.231 0.228 0.224 0.182 0.150 0.120 0.111 0.111 0.128 0.141 0.145 0.140 0.117 0.098 0.075 0.039 0.000
-0.022 -0.029 -0.029 -0.032 -0.032 -0.032 -0.032 -0.031 -0.030 -0.029 -0.029 -0.029 -0.029 -0.031 -0.031 -0.031 -0.031 -0.031 -0.030 -0.029 -0.028 -0.027 -0.026 -0.025 -0.025 -0.025 -0.025 -0.026 -0.026 -0.025 -0.024 -0.019 -0.010 0.002 0.009 0.012 0.013 0.014 0.020 0.029 0.045 0.068 0.095 0.124 0.151 0.173 0.185 0.193 0.199 0.203 0.204 0.201 0.199 0.192 0.186 0.161 0.146 0.121 0.099 0.084 0.058 0.038 0.029 0.021 0.017 0.017 0.017 0.015 0.013 0.012 0.011 0.009 0.007 0.005 0.003 0.002 -0.000 -0.001 -0.003 -0.003 -0.004 -0.005 -0.005 -0.004 -0.004 -0.004 -0.003 -0.003 -0.003 -0.003 -0.004 -0.004 -0.004 -0.005 -0.005 -0.005 -0.005 -0.005 -0.005 -0.005 -0.004 -0.006 -0.008 -0.011 -0.017 -0.019 -0.021 -0.022 -0.022 -0.022 -0.022 -0.023 -0.024 -0.025 -0.026 -0.028 -0.034 -0.042 -0.046 -0.049 -0.051 -0.053 -0.057 -0.061 -0.063 -0.065 -0.066 -0.066 -0.066 -0.062 -0.052 -0.028 0.014 0.051 0.060 0.060 0.043 0.022 -0.010 -0.023 -0.034 -0.040 -0.042 -0.042 -0.042 -0.039 -0.037 -0.033 -0.031 -0.029 -0.022 -0.013 -0.002 0.006 0.023 0.042 0.089 0.114 0.129 0.152 0.202 0.236 0.261 0.261 0.244 0.235 0.180 0.121 0.116 0.118 0.138 0.150 0.157 0.156 0.140 0.103 0.080 0.035 0.000
